# .PCD v0.7 - Point Cloud Data file format
VERSION 0.7
FIELDS x y z
SIZE 4 4 4
TYPE F F F
COUNT 1 1 1
WIDTH 1803
HEIGHT 1
VIEWPOINT 0 0 0 1 0 0 0
POINTS 1803
DATA ascii
2.21 -2.6900001 0.86000001
2.21 -2.6900001 0.95999998
2.21 -2.6900001 1.0599999
2.21 -2.6900001 1.16
2.21 -2.6900001 1.26
2.21 -2.6900001 1.36
2.21 -2.6900001 1.46
2.21 -2.6900001 1.5599999
2.21 -2.6900001 1.66
2.21 -2.6900001 1.76
2.21 -2.6900001 1.86
2.21 -2.5899999 -0.94
2.21 -2.5899999 -0.83999997
2.21 -2.5899999 -0.74000001
2.21 -2.5899999 -0.63999999
2.21 -2.5899999 -0.54000002
2.21 -2.5899999 -0.44
2.21 -2.5899999 -0.34
2.21 -2.5899999 -0.23999999
2.21 -2.5899999 -0.14
2.21 -2.5899999 -0.039999999
2.21 -2.5899999 0.059999999
2.21 -2.5899999 0.16
2.21 -2.5899999 0.25999999
2.21 -2.5899999 0.36000001
2.21 -2.5899999 0.46000001
2.21 -2.5899999 0.56
2.21 -2.5899999 0.66000003
2.21 -2.5899999 0.75999999
2.21 -2.5899999 0.86000001
2.21 -2.5899999 0.95999998
2.21 -2.5899999 1.0599999
2.21 -2.5899999 1.16
2.21 -2.5899999 1.26
2.21 -2.49 -0.94
2.21 -2.49 -0.83999997
2.21 -2.49 -0.74000001
2.21 -2.49 -0.63999999
2.21 -2.49 -0.54000002
2.21 -2.49 -0.44
2.21 -2.49 -0.34
2.21 -2.49 -0.23999999
2.21 -2.49 -0.14
2.21 -2.49 -0.039999999
2.21 -2.49 0.059999999
2.21 -2.49 0.16
2.21 -2.49 0.25999999
2.21 -2.49 0.36000001
2.21 -2.49 0.46000001
2.21 -2.49 0.56
2.21 -2.49 0.66000003
2.21 -2.49 0.75999999
2.21 -2.49 0.86000001
2.21 -2.49 0.95999998
2.21 -2.49 1.0599999
2.21 -2.49 1.16
2.21 -2.49 1.26
2.21 -2.49 1.36
2.21 -2.49 1.46
2.21 -2.49 1.5599999
2.21 -2.49 1.66
2.21 -2.49 1.76
2.21 -2.49 1.86
2.21 -2.49 1.96
2.21 -2.49 2.0599999
2.21 -2.49 2.1600001
2.3099999 -2.79 -0.94
2.3099999 -2.79 -0.83999997
2.3099999 -2.79 -0.74000001
2.3099999 -2.79 -0.63999999
2.3099999 -2.79 -0.54000002
2.3099999 -2.79 -0.44
2.3099999 -2.79 -0.34
2.3099999 -2.79 -0.23999999
2.3099999 -2.79 -0.14
2.3099999 -2.79 -0.039999999
2.3099999 -2.79 0.059999999
2.3099999 -2.79 0.16
2.3099999 -2.79 0.25999999
2.3099999 -2.79 0.36000001
2.3099999 -2.79 0.46000001
2.3099999 -2.79 0.56
2.3099999 -2.79 0.66000003
2.3099999 -2.79 0.75999999
2.3099999 -2.79 0.86000001
2.3099999 -2.79 0.95999998
2.3099999 -2.79 1.0599999
2.3099999 -2.79 1.16
2.3099999 -2.79 1.26
2.3099999 -2.79 1.36
2.3099999 -2.79 1.46
2.3099999 -2.79 1.5599999
2.3099999 -2.79 1.66
2.3099999 -2.79 1.76
2.3099999 -2.79 1.86
2.3099999 -2.79 1.96
2.3099999 -2.79 2.0599999
2.3099999 -2.79 2.1600001
2.3099999 -2.79 2.26
2.3099999 -2.79 2.3599999
2.3099999 -2.79 2.46
2.3099999 -2.6900001 -0.94
2.3099999 -2.6900001 -0.83999997
2.3099999 -2.6900001 -0.74000001
2.3099999 -2.6900001 -0.63999999
2.3099999 -2.6900001 -0.54000002
2.3099999 -2.6900001 -0.44
2.3099999 -2.6900001 -0.34
2.3099999 -2.6900001 -0.23999999
2.3099999 -2.6900001 -0.14
2.3099999 -2.6900001 -0.039999999
2.3099999 -2.6900001 0.059999999
2.3099999 -2.6900001 0.16
2.3099999 -2.6900001 0.25999999
2.3099999 -2.6900001 0.36000001
2.3099999 -2.6900001 0.46000001
2.3099999 -2.6900001 0.56
2.3099999 -2.6900001 0.66000003
2.3099999 -2.6900001 0.75999999
2.3099999 -2.6900001 0.86000001
2.3099999 -2.6900001 0.95999998
2.3099999 -2.6900001 1.0599999
2.3099999 -2.6900001 1.16
2.3099999 -2.6900001 1.26
2.3099999 -2.6900001 1.36
2.3099999 -2.6900001 1.46
2.3099999 -2.6900001 1.5599999
2.3099999 -2.6900001 1.66
2.3099999 -2.6900001 1.76
2.3099999 -2.6900001 1.86
2.3099999 -2.6900001 1.96
2.3099999 -2.6900001 2.0599999
2.3099999 -2.6900001 2.1600001
2.3099999 -2.6900001 2.26
2.3099999 -2.6900001 2.3599999
2.3099999 -2.6900001 2.46
2.3099999 -2.6900001 2.5599999
2.3099999 -2.6900001 2.6600001
2.3099999 -2.6900001 2.76
2.3099999 -2.5899999 -0.94
2.3099999 -2.5899999 -0.83999997
2.3099999 -2.5899999 -0.74000001
2.3099999 -2.5899999 -0.63999999
2.3099999 -2.5899999 -0.54000002
2.3099999 -2.5899999 -0.44
2.3099999 -2.5899999 -0.34
2.3099999 -2.5899999 -0.23999999
2.3099999 -2.5899999 -0.14
2.3099999 -2.5899999 -0.039999999
2.3099999 -2.5899999 0.059999999
2.3099999 -2.5899999 0.16
2.3099999 -2.5899999 0.25999999
2.3099999 -2.5899999 0.36000001
2.3099999 -2.49 -0.94
2.3099999 -2.49 -0.83999997
2.3099999 -2.49 -0.74000001
2.3099999 -2.49 -0.63999999
2.3099999 -2.49 -0.54000002
2.3099999 -2.49 -0.44
2.3099999 -2.49 -0.34
2.3099999 -2.49 -0.23999999
2.3099999 -2.49 -0.14
2.3099999 -2.49 -0.039999999
2.3099999 -2.49 0.059999999
2.3099999 -2.49 0.16
2.3099999 -2.49 0.25999999
2.3099999 -2.49 0.36000001
2.3099999 -2.49 0.46000001
2.3099999 -2.49 0.56
2.3099999 -2.49 0.66000003
2.3099999 -2.49 0.75999999
2.3099999 -2.49 0.86000001
2.3099999 -2.49 0.95999998
2.3099999 -2.49 1.0599999
2.3099999 -2.49 1.16
2.3099999 -2.49 1.26
2.3099999 -2.49 1.36
2.3099999 -2.49 1.46
2.3099999 -2.49 1.5599999
2.3099999 -2.49 1.66
2.3099999 -2.49 1.76
2.3099999 -2.49 1.86
2.3099999 -2.49 1.96
2.3099999 -2.49 2.0599999
2.3099999 -2.49 2.1600001
2.3099999 -2.49 2.26
2.3099999 -2.49 2.3599999
2.3099999 -2.49 2.46
2.3099999 -2.49 2.5599999
2.3099999 -2.49 2.6600001
2.3099999 -2.49 2.76
2.3099999 -2.49 2.8599999
2.4100001 -2.79 -0.94
2.4100001 -2.79 -0.83999997
2.4100001 -2.79 -0.74000001
2.4100001 -2.79 -0.63999999
2.4100001 -2.79 -0.54000002
2.4100001 -2.79 -0.44
2.4100001 -2.79 -0.34
2.4100001 -2.79 -0.23999999
2.4100001 -2.79 -0.14
2.4100001 -2.79 -0.039999999
2.4100001 -2.79 0.059999999
2.4100001 -2.79 0.16
2.4100001 -2.79 0.25999999
2.4100001 -2.79 0.36000001
2.4100001 -2.79 0.46000001
2.4100001 -2.79 0.56
2.4100001 -2.79 0.66000003
2.4100001 -2.79 0.75999999
2.4100001 -2.79 0.86000001
2.4100001 -2.79 0.95999998
2.4100001 -2.79 1.0599999
2.4100001 -2.79 1.16
2.4100001 -2.79 1.26
2.4100001 -2.79 1.36
2.4100001 -2.79 1.46
2.4100001 -2.79 1.5599999
2.4100001 -2.79 1.66
2.4100001 -2.79 1.76
2.4100001 -2.79 1.86
2.4100001 -2.79 1.96
2.4100001 -2.79 2.0599999
2.4100001 -2.79 2.1600001
2.4100001 -2.79 2.26
2.4100001 -2.79 2.3599999
2.4100001 -2.79 2.46
2.4100001 -2.6900001 -0.94
2.4100001 -2.6900001 -0.83999997
2.4100001 -2.6900001 -0.74000001
2.4100001 -2.6900001 -0.63999999
2.4100001 -2.6900001 -0.54000002
2.4100001 -2.6900001 -0.44
2.4100001 -2.6900001 -0.34
2.4100001 -2.6900001 -0.23999999
2.4100001 -2.6900001 -0.14
2.4100001 -2.6900001 -0.039999999
2.4100001 -2.6900001 0.059999999
2.4100001 -2.6900001 0.16
2.4100001 -2.6900001 0.25999999
2.4100001 -2.6900001 0.36000001
2.4100001 -2.6900001 0.46000001
2.4100001 -2.6900001 0.56
2.4100001 -2.6900001 0.66000003
2.4100001 -2.6900001 0.75999999
2.4100001 -2.6900001 0.86000001
2.4100001 -2.6900001 0.95999998
2.4100001 -2.6900001 1.0599999
2.4100001 -2.6900001 1.16
2.4100001 -2.6900001 1.26
2.4100001 -2.6900001 1.36
2.4100001 -2.6900001 1.46
2.4100001 -2.6900001 1.5599999
2.4100001 -2.6900001 1.66
2.4100001 -2.5899999 -0.94
2.4100001 -2.5899999 -0.83999997
2.4100001 -2.5899999 -0.74000001
2.4100001 -2.5899999 -0.63999999
2.4100001 -2.5899999 -0.54000002
2.4100001 -2.5899999 -0.44
2.4100001 -2.5899999 -0.34
2.4100001 -2.5899999 -0.23999999
2.4100001 -2.5899999 -0.14
2.4100001 -2.5899999 -0.039999999
2.4100001 -2.5899999 0.059999999
2.4100001 -2.5899999 0.16
2.4100001 -2.5899999 0.25999999
2.4100001 -2.5899999 0.36000001
2.4100001 -2.5899999 0.46000001
2.4100001 -2.5899999 0.56
2.4100001 -2.5899999 0.66000003
2.4100001 -2.5899999 0.75999999
2.4100001 -2.5899999 0.86000001
2.4100001 -2.49 -0.94
2.4100001 -2.49 -0.83999997
2.4100001 -2.49 -0.74000001
2.4100001 -2.49 -0.63999999
2.4100001 -2.49 -0.54000002
2.4100001 -2.49 -0.44
2.4100001 -2.49 -0.34
2.4100001 -2.49 -0.23999999
2.4100001 -2.49 -0.14
2.4100001 -2.49 -0.039999999
2.4100001 -2.49 0.059999999
2.4100001 -2.49 0.16
2.4100001 -2.49 0.25999999
2.4100001 -2.49 0.36000001
2.4100001 -2.49 0.46000001
2.4100001 -2.49 0.56
2.4100001 -2.49 0.66000003
2.4100001 -2.49 0.75999999
2.4100001 -2.49 0.86000001
2.4100001 -2.49 0.95999998
2.4100001 -2.49 1.0599999
2.4100001 -2.49 1.16
2.4100001 -2.49 1.26
2.4100001 -2.49 1.36
2.4100001 -2.49 1.46
2.4100001 -2.49 1.5599999
2.4100001 -2.49 1.66
2.4100001 -2.49 1.76
2.4100001 -2.49 1.86
2.4100001 -2.49 1.96
2.4100001 -2.49 2.0599999
2.4100001 -2.49 2.1600001
2.4100001 -2.49 2.26
2.4100001 -2.49 2.3599999
2.4100001 -2.49 2.46
2.4100001 -2.49 2.5599999
2.4100001 -2.49 2.6600001
2.4100001 -2.49 2.76
2.51 -2.79 -0.94
2.51 -2.79 -0.83999997
2.51 -2.79 -0.74000001
2.51 -2.79 -0.63999999
2.51 -2.79 -0.54000002
2.51 -2.79 -0.44
2.51 -2.79 -0.34
2.51 -2.79 -0.23999999
2.51 -2.79 -0.14
2.51 -2.79 -0.039999999
2.51 -2.79 0.059999999
2.51 -2.79 0.16
2.51 -2.79 0.25999999
2.51 -2.79 0.36000001
2.51 -2.79 0.46000001
2.51 -2.79 0.56
2.51 -2.79 0.66000003
2.51 -2.79 0.75999999
2.51 -2.6900001 -0.94
2.51 -2.6900001 -0.83999997
2.51 -2.6900001 -0.74000001
2.51 -2.6900001 -0.63999999
2.51 -2.6900001 -0.54000002
2.51 -2.6900001 -0.44
2.51 -2.6900001 -0.34
2.51 -2.6900001 -0.23999999
2.51 -2.6900001 -0.14
2.51 -2.6900001 -0.039999999
2.51 -2.6900001 0.059999999
2.51 -2.6900001 0.16
2.51 -2.6900001 0.25999999
2.51 -2.6900001 0.36000001
2.51 -2.6900001 0.46000001
2.51 -2.6900001 0.56
2.51 -2.6900001 0.66000003
2.51 -2.5899999 -0.94
2.51 -2.5899999 -0.83999997
2.51 -2.5899999 -0.74000001
2.51 -2.5899999 -0.63999999
2.51 -2.5899999 -0.54000002
2.51 -2.5899999 -0.44
2.51 -2.5899999 -0.34
2.51 -2.5899999 -0.23999999
2.51 -2.5899999 -0.14
2.51 -2.5899999 -0.039999999
2.51 -2.5899999 0.059999999
2.51 -2.5899999 0.16
2.51 -2.5899999 0.25999999
2.51 -2.5899999 0.36000001
2.51 -2.5899999 0.46000001
2.51 -2.5899999 0.56
2.51 -2.5899999 0.66000003
2.51 -2.5899999 0.75999999
2.51 -2.5899999 0.86000001
2.51 -2.5899999 0.95999998
2.51 -2.5899999 1.0599999
2.51 -2.5899999 1.16
2.51 -2.5899999 1.26
2.51 -2.5899999 1.36
2.51 -2.5899999 1.46
2.51 -2.5899999 1.5599999
2.51 -2.5899999 1.66
2.51 -2.5899999 1.76
2.51 -2.5899999 1.86
2.51 -2.5899999 1.96
2.51 -2.5899999 2.0599999
2.51 -2.5899999 2.1600001
-4.5900002 4.1100001 -0.94
-4.5900002 4.1100001 -0.83999997
-4.5900002 4.1100001 -0.74000001
-4.5900002 4.1100001 -0.63999999
-4.5900002 4.1100001 -0.54000002
-4.5900002 4.1100001 -0.44
-4.5900002 4.1100001 -0.34
-4.5900002 4.1100001 -0.23999999
-4.5900002 4.1100001 -0.14
-4.5900002 4.1100001 -0.039999999
-4.5900002 4.1100001 0.059999999
-4.5900002 4.1100001 0.16
-4.5900002 4.1100001 0.25999999
-4.5900002 4.1100001 0.36000001
-4.5900002 4.1100001 0.46000001
-4.5900002 4.1100001 0.56
-4.5900002 4.1100001 0.66000003
-4.5900002 4.1100001 0.75999999
-4.5900002 4.1100001 0.86000001
-4.5900002 4.1100001 0.95999998
-4.5900002 4.1100001 1.0599999
-4.5900002 4.1100001 1.16
-4.5900002 4.1100001 1.26
-4.5900002 4.21 -0.94
-4.5900002 4.21 -0.83999997
-4.5900002 4.21 -0.74000001
-4.5900002 4.21 -0.63999999
-4.5900002 4.21 -0.54000002
-4.5900002 4.21 -0.44
-4.5900002 4.21 -0.34
-4.5900002 4.21 -0.23999999
-4.5900002 4.21 -0.14
-4.5900002 4.21 -0.039999999
-4.5900002 4.21 0.059999999
-4.5900002 4.21 0.16
-4.5900002 4.21 0.25999999
-4.5900002 4.21 0.36000001
-4.5900002 4.21 0.46000001
-4.5900002 4.21 0.56
-4.5900002 4.21 0.66000003
-4.5900002 4.21 0.75999999
-4.5900002 4.21 0.86000001
-4.5900002 4.21 0.95999998
-4.5900002 4.21 1.0599999
-4.5900002 4.21 1.16
-4.5900002 4.21 1.26
-4.5900002 4.21 1.36
-4.5900002 4.21 1.46
-4.5900002 4.21 1.5599999
-4.5900002 4.21 1.66
-4.5900002 4.21 1.76
-4.5900002 4.21 1.86
-4.5900002 4.21 1.96
-4.5900002 4.21 2.0599999
-4.5900002 4.21 2.1600001
-4.4899998 4.0100002 -0.94
-4.4899998 4.0100002 -0.83999997
-4.4899998 4.0100002 -0.74000001
-4.4899998 4.0100002 -0.63999999
-4.4899998 4.0100002 -0.54000002
-4.4899998 4.0100002 -0.44
-4.4899998 4.0100002 -0.34
-4.4899998 4.0100002 -0.23999999
-4.4899998 4.0100002 -0.14
-4.4899998 4.0100002 -0.039999999
-4.4899998 4.0100002 0.059999999
-4.4899998 4.0100002 0.16
-4.4899998 4.0100002 0.25999999
-4.4899998 4.0100002 0.36000001
-4.4899998 4.0100002 0.46000001
-4.4899998 4.0100002 0.56
-4.4899998 4.0100002 0.66000003
-4.4899998 4.0100002 0.75999999
-4.4899998 4.0100002 0.86000001
-4.4899998 4.0100002 0.95999998
-4.4899998 4.1100001 -0.94
-4.4899998 4.1100001 -0.83999997
-4.4899998 4.1100001 -0.74000001
-4.4899998 4.1100001 -0.63999999
-4.4899998 4.1100001 -0.54000002
-4.4899998 4.1100001 -0.44
-4.4899998 4.1100001 -0.34
-4.4899998 4.1100001 -0.23999999
-4.4899998 4.1100001 -0.14
-4.4899998 4.1100001 -0.039999999
-4.4899998 4.1100001 0.059999999
-4.4899998 4.1100001 0.16
-4.4899998 4.1100001 0.25999999
-4.4899998 4.21 -0.94
-4.4899998 4.21 -0.83999997
-4.4899998 4.21 -0.74000001
-4.4899998 4.21 -0.63999999
-4.4899998 4.21 -0.54000002
-4.4899998 4.21 -0.44
-4.4899998 4.21 -0.34
-4.4899998 4.21 -0.23999999
-4.4899998 4.21 -0.14
-4.4899998 4.21 -0.039999999
-4.4899998 4.21 0.059999999
-4.4899998 4.21 0.16
-4.4899998 4.21 0.25999999
-4.4899998 4.21 0.36000001
-4.4899998 4.21 0.46000001
-4.4899998 4.21 0.56
-4.4899998 4.21 0.66000003
-4.4899998 4.21 0.75999999
-4.4899998 4.21 0.86000001
-4.4899998 4.21 0.95999998
-4.4899998 4.3099999 -0.94
-4.4899998 4.3099999 -0.83999997
-4.4899998 4.3099999 -0.74000001
-4.4899998 4.3099999 -0.63999999
-4.4899998 4.3099999 -0.54000002
-4.4899998 4.3099999 -0.44
-4.4899998 4.3099999 -0.34
-4.4899998 4.3099999 -0.23999999
-4.4899998 4.3099999 -0.14
-4.4899998 4.3099999 -0.039999999
-4.4899998 4.3099999 0.059999999
-4.3899999 3.9100001 -0.94
-4.3899999 3.9100001 -0.83999997
-4.3899999 3.9100001 -0.74000001
-4.3899999 3.9100001 -0.63999999
-4.3899999 3.9100001 -0.54000002
-4.3899999 3.9100001 -0.44
-4.3899999 3.9100001 -0.34
-4.3899999 3.9100001 -0.23999999
-4.3899999 3.9100001 -0.14
-4.3899999 3.9100001 -0.039999999
-4.3899999 3.9100001 0.059999999
-4.3899999 3.9100001 0.16
-4.3899999 3.9100001 0.25999999
-4.3899999 3.9100001 0.36000001
-4.3899999 3.9100001 0.46000001
-4.3899999 3.9100001 0.56
-4.3899999 3.9100001 0.66000003
-4.3899999 3.9100001 0.75999999
-4.3899999 3.9100001 0.86000001
-4.3899999 3.9100001 0.95999998
-4.3899999 3.9100001 1.0599999
-4.3899999 3.9100001 1.16
-4.3899999 3.9100001 1.26
-4.3899999 3.9100001 1.36
-4.3899999 3.9100001 1.46
-4.3899999 3.9100001 1.5599999
-4.3899999 3.9100001 1.66
-4.3899999 3.9100001 1.76
-4.3899999 3.9100001 1.86
-4.3899999 4.0100002 -0.94
-4.3899999 4.0100002 -0.83999997
-4.3899999 4.0100002 -0.74000001
-4.3899999 4.0100002 -0.63999999
-4.3899999 4.0100002 -0.54000002
-4.3899999 4.0100002 -0.44
-4.3899999 4.0100002 -0.34
-4.3899999 4.0100002 -0.23999999
-4.3899999 4.0100002 -0.14
-4.3899999 4.0100002 -0.039999999
-4.3899999 4.0100002 0.059999999
-4.3899999 4.0100002 0.16
-4.3899999 4.0100002 0.25999999
-4.3899999 4.0100002 0.36000001
-4.3899999 4.0100002 0.46000001
-4.3899999 4.0100002 0.56
-4.3899999 4.0100002 0.66000003
-4.3899999 4.0100002 0.75999999
-4.3899999 4.0100002 0.86000001
-4.3899999 4.0100002 0.95999998
-4.3899999 4.0100002 1.0599999
-4.3899999 4.0100002 1.16
-4.3899999 4.0100002 1.26
-4.3899999 4.1100001 -0.94
-4.3899999 4.1100001 -0.83999997
-4.3899999 4.1100001 -0.74000001
-4.3899999 4.1100001 -0.63999999
-4.3899999 4.1100001 -0.54000002
-4.3899999 4.1100001 -0.44
-4.3899999 4.1100001 -0.34
-4.3899999 4.1100001 -0.23999999
-4.3899999 4.1100001 -0.14
-4.3899999 4.1100001 -0.039999999
-4.3899999 4.1100001 0.059999999
-4.3899999 4.1100001 0.16
-4.3899999 4.1100001 0.25999999
-4.3899999 4.1100001 0.36000001
-4.3899999 4.1100001 0.46000001
-4.3899999 4.1100001 0.56
-4.3899999 4.1100001 0.66000003
-4.3899999 4.1100001 0.75999999
-4.3899999 4.1100001 0.86000001
-4.3899999 4.1100001 0.95999998
-4.3899999 4.1100001 1.0599999
-4.3899999 4.1100001 1.16
-4.3899999 4.1100001 1.26
-4.3899999 4.1100001 1.36
-4.3899999 4.1100001 1.46
-4.3899999 4.1100001 1.5599999
-4.3899999 4.1100001 1.66
-4.3899999 4.1100001 1.76
-4.3899999 4.1100001 1.86
-4.3899999 4.1100001 1.96
-4.3899999 4.1100001 2.0599999
-4.3899999 4.21 -0.94
-4.3899999 4.21 -0.83999997
-4.3899999 4.21 -0.74000001
-4.3899999 4.21 -0.63999999
-4.3899999 4.21 -0.54000002
-4.3899999 4.21 -0.44
-4.3899999 4.21 -0.34
-4.3899999 4.21 -0.23999999
-4.3899999 4.21 -0.14
-4.3899999 4.21 -0.039999999
-4.3899999 4.21 0.059999999
-4.3899999 4.21 0.16
-4.3899999 4.21 0.25999999
-4.3899999 4.21 0.36000001
-4.3899999 4.21 0.46000001
-4.3899999 4.21 0.56
-4.3899999 4.21 0.66000003
-4.3899999 4.3099999 -0.94
-4.3899999 4.3099999 -0.83999997
-4.3899999 4.3099999 -0.74000001
-4.3899999 4.3099999 -0.63999999
-4.3899999 4.3099999 -0.54000002
-4.3899999 4.3099999 -0.44
-4.3899999 4.3099999 -0.34
-4.3899999 4.3099999 -0.23999999
-4.3899999 4.3099999 -0.14
-4.3899999 4.3099999 -0.039999999
-4.3899999 4.3099999 0.059999999
-4.3899999 4.3099999 0.16
-4.3899999 4.3099999 0.25999999
-4.3899999 4.3099999 0.36000001
-4.3899999 4.3099999 0.46000001
-4.3899999 4.3099999 0.56
-4.3899999 4.3099999 0.66000003
-4.3899999 4.3099999 0.75999999
-4.3899999 4.3099999 0.86000001
-4.3899999 4.3099999 0.95999998
-4.3899999 4.3099999 1.0599999
-4.3899999 4.3099999 1.16
-4.3899999 4.3099999 1.26
-4.3899999 4.3099999 1.36
-4.3899999 4.3099999 1.46
-4.3899999 4.3099999 1.5599999
-4.3899999 4.3099999 1.66
-4.3899999 4.3099999 1.76
-4.3899999 4.4099998 -0.94
-4.3899999 4.4099998 -0.83999997
-4.3899999 4.4099998 -0.74000001
-4.3899999 4.4099998 -0.63999999
-4.3899999 4.4099998 -0.54000002
-4.3899999 4.4099998 -0.44
-4.3899999 4.4099998 -0.34
-4.3899999 4.4099998 -0.23999999
-4.3899999 4.4099998 -0.14
-4.3899999 4.4099998 -0.039999999
-4.3899999 4.4099998 0.059999999
-4.3899999 4.4099998 0.16
-4.3899999 4.4099998 0.25999999
-4.3899999 4.4099998 0.36000001
-4.3899999 4.4099998 0.46000001
-4.3899999 4.4099998 0.56
-4.3899999 4.4099998 0.66000003
-4.3899999 4.4099998 0.75999999
-4.3899999 4.4099998 0.86000001
-4.3899999 4.4099998 0.95999998
-4.3899999 4.4099998 1.0599999
-4.3899999 4.4099998 1.16
-4.3899999 4.4099998 1.26
-4.3899999 4.4099998 1.36
-4.29 3.9100001 -0.94
-4.29 3.9100001 -0.83999997
-4.29 3.9100001 -0.74000001
-4.29 3.9100001 -0.63999999
-4.29 3.9100001 -0.54000002
-4.29 3.9100001 -0.44
-4.29 3.9100001 -0.34
-4.29 3.9100001 -0.23999999
-4.29 3.9100001 -0.14
-4.29 3.9100001 -0.039999999
-4.29 3.9100001 0.059999999
-4.29 4.0100002 -0.94
-4.29 4.0100002 -0.83999997
-4.29 4.0100002 -0.74000001
-4.29 4.0100002 -0.63999999
-4.29 4.0100002 -0.54000002
-4.29 4.0100002 -0.44
-4.29 4.0100002 -0.34
-4.29 4.0100002 -0.23999999
-4.29 4.0100002 -0.14
-4.29 4.0100002 -0.039999999
-4.29 4.0100002 0.059999999
-4.29 4.0100002 0.16
-4.29 4.0100002 0.25999999
-4.29 4.0100002 0.36000001
-4.29 4.0100002 0.46000001
-4.29 4.0100002 0.56
-4.29 4.0100002 0.66000003
-4.29 4.0100002 0.75999999
-4.29 4.0100002 0.86000001
-4.29 4.0100002 0.95999998
-4.29 4.0100002 1.0599999
-4.29 4.0100002 1.16
-4.29 4.0100002 1.26
-4.29 4.0100002 1.36
-4.29 4.0100002 1.46
-4.29 4.0100002 1.5599999
-4.29 4.0100002 1.66
-4.29 4.1100001 -0.94
-4.29 4.1100001 -0.83999997
-4.29 4.1100001 -0.74000001
-4.29 4.1100001 -0.63999999
-4.29 4.1100001 -0.54000002
-4.29 4.1100001 -0.44
-4.29 4.1100001 -0.34
-4.29 4.1100001 -0.23999999
-4.29 4.1100001 -0.14
-4.29 4.1100001 -0.039999999
-4.29 4.1100001 0.059999999
-4.29 4.1100001 0.16
-4.29 4.1100001 0.25999999
-4.29 4.1100001 0.36000001
-4.29 4.1100001 0.46000001
-4.29 4.1100001 0.56
-4.29 4.1100001 0.66000003
-4.29 4.1100001 0.75999999
-4.29 4.21 -0.94
-4.29 4.21 -0.83999997
-4.29 4.21 -0.74000001
-4.29 4.21 -0.63999999
-4.29 4.21 -0.54000002
-4.29 4.21 -0.44
-4.29 4.21 -0.34
-4.29 4.21 -0.23999999
-4.29 4.21 -0.14
-4.29 4.21 -0.039999999
-4.29 4.21 0.059999999
-4.29 4.21 0.16
-4.29 4.21 0.25999999
-4.29 4.21 0.36000001
-4.29 4.21 0.46000001
-4.29 4.21 0.56
-4.29 4.21 0.66000003
-4.29 4.21 0.75999999
-4.29 4.21 0.86000001
-4.29 4.21 0.95999998
-4.29 4.21 1.0599999
-4.29 4.21 1.16
-4.29 4.21 1.26
-4.29 4.3099999 -0.94
-4.29 4.3099999 -0.83999997
-4.29 4.3099999 -0.74000001
-4.29 4.3099999 -0.63999999
-4.29 4.3099999 -0.54000002
-4.29 4.3099999 -0.44
-4.29 4.3099999 -0.34
-4.29 4.3099999 -0.23999999
-4.29 4.3099999 -0.14
-4.29 4.3099999 -0.039999999
-4.29 4.3099999 0.059999999
-4.29 4.3099999 0.16
-4.29 4.3099999 0.25999999
-4.29 4.3099999 0.36000001
-4.29 4.3099999 0.46000001
-4.29 4.3099999 0.56
-4.29 4.3099999 0.66000003
-4.29 4.3099999 0.75999999
-4.29 4.4099998 -0.94
-4.29 4.4099998 -0.83999997
-4.29 4.4099998 -0.74000001
-4.29 4.4099998 -0.63999999
-4.29 4.4099998 -0.54000002
-4.29 4.4099998 -0.44
-4.29 4.4099998 -0.34
-4.29 4.4099998 -0.23999999
-4.29 4.4099998 -0.14
-4.29 4.4099998 -0.039999999
-4.29 4.4099998 0.059999999
-4.29 4.4099998 0.16
-4.29 4.4099998 0.25999999
-4.1900001 4.0100002 -0.94
-4.1900001 4.0100002 -0.83999997
-4.1900001 4.0100002 -0.74000001
-4.1900001 4.0100002 -0.63999999
-4.1900001 4.0100002 -0.54000002
-4.1900001 4.0100002 -0.44
-4.1900001 4.0100002 -0.34
-4.1900001 4.0100002 -0.23999999
-4.1900001 4.0100002 -0.14
-4.1900001 4.0100002 -0.039999999
-4.1900001 4.0100002 0.059999999
-4.1900001 4.0100002 0.16
-4.1900001 4.0100002 0.25999999
-4.1900001 4.0100002 0.36000001
-4.1900001 4.0100002 0.46000001
-4.1900001 4.0100002 0.56
-4.1900001 4.0100002 0.66000003
-4.1900001 4.0100002 0.75999999
-4.1900001 4.0100002 0.86000001
-4.1900001 4.0100002 0.95999998
-4.1900001 4.0100002 1.0599999
-4.1900001 4.0100002 1.16
-4.1900001 4.0100002 1.26
-4.1900001 4.0100002 1.36
-4.1900001 4.0100002 1.46
-4.1900001 4.0100002 1.5599999
-4.1900001 4.0100002 1.66
-4.1900001 4.0100002 1.76
-4.1900001 4.0100002 1.86
-4.1900001 4.0100002 1.96
-4.1900001 4.0100002 2.0599999
-4.1900001 4.0100002 2.1600001
-4.1900001 4.0100002 2.26
-4.1900001 4.0100002 2.3599999
-4.1900001 4.0100002 2.46
-4.1900001 4.1100001 -0.94
-4.1900001 4.1100001 -0.83999997
-4.1900001 4.1100001 -0.74000001
-4.1900001 4.1100001 -0.63999999
-4.1900001 4.1100001 -0.54000002
-4.1900001 4.1100001 -0.44
-4.1900001 4.1100001 -0.34
-4.1900001 4.1100001 -0.23999999
-4.1900001 4.1100001 -0.14
-4.1900001 4.1100001 -0.039999999
-4.1900001 4.1100001 0.059999999
-4.1900001 4.1100001 0.16
-4.1900001 4.1100001 0.25999999
-4.1900001 4.21 -0.94
-4.1900001 4.21 -0.83999997
-4.1900001 4.21 -0.74000001
-4.1900001 4.21 -0.63999999
-4.1900001 4.21 -0.54000002
-4.1900001 4.21 -0.44
-4.1900001 4.21 -0.34
-4.1900001 4.21 -0.23999999
-4.1900001 4.21 -0.14
-4.1900001 4.21 -0.039999999
-4.1900001 4.21 0.059999999
-4.1900001 4.21 0.16
-4.1900001 4.21 0.25999999
-4.1900001 4.21 0.36000001
-4.1900001 4.21 0.46000001
-4.1900001 4.21 0.56
-4.1900001 4.21 0.66000003
-4.1900001 4.21 0.75999999
-4.1900001 4.21 0.86000001
-4.1900001 4.21 0.95999998
-4.1900001 4.21 1.0599999
-4.1900001 4.21 1.16
-4.1900001 4.21 1.26
-4.1900001 4.21 1.36
-4.1900001 4.3099999 -0.94
-4.1900001 4.3099999 -0.83999997
-4.1900001 4.3099999 -0.74000001
-4.1900001 4.3099999 -0.63999999
-4.1900001 4.3099999 -0.54000002
-4.1900001 4.3099999 -0.44
-4.1900001 4.3099999 -0.34
-4.1900001 4.3099999 -0.23999999
-4.1900001 4.3099999 -0.14
-4.1900001 4.3099999 -0.039999999
-4.1900001 4.3099999 0.059999999
-4.1900001 4.3099999 0.16
-4.1900001 4.3099999 0.25999999
-4.1900001 4.3099999 0.36000001
-4.1900001 4.3099999 0.46000001
-4.1900001 4.3099999 0.56
-4.1900001 4.3099999 0.66000003
-4.1900001 4.3099999 0.75999999
-4.1900001 4.3099999 0.86000001
-4.1900001 4.3099999 0.95999998
-4.1900001 4.3099999 1.0599999
-4.1900001 4.3099999 1.16
-4.1900001 4.3099999 1.26
-4.1900001 4.3099999 1.36
-4.1900001 4.3099999 1.46
-4.1900001 4.3099999 1.5599999
-4.0900002 4.1100001 -0.94
-4.0900002 4.1100001 -0.83999997
-4.0900002 4.1100001 -0.74000001
-4.0900002 4.1100001 -0.63999999
-4.0900002 4.1100001 -0.54000002
-4.0900002 4.1100001 -0.44
-4.0900002 4.1100001 -0.34
-4.0900002 4.1100001 -0.23999999
-4.0900002 4.1100001 -0.14
-4.0900002 4.1100001 -0.039999999
-4.0900002 4.1100001 0.059999999
-4.0900002 4.1100001 0.16
-4.0900002 4.1100001 0.25999999
-4.0900002 4.1100001 0.36000001
-4.0900002 4.1100001 0.46000001
-4.0900002 4.1100001 0.56
-4.0900002 4.1100001 0.66000003
-4.0900002 4.1100001 0.75999999
-4.0900002 4.1100001 0.86000001
-4.0900002 4.1100001 0.95999998
-4.0900002 4.1100001 1.0599999
-4.0900002 4.1100001 1.16
-4.0900002 4.1100001 1.26
-4.0900002 4.1100001 1.36
-4.0900002 4.1100001 1.46
-4.0900002 4.1100001 1.5599999
-4.0900002 4.1100001 1.66
-4.0900002 4.1100001 1.76
-4.0900002 4.1100001 1.86
-4.0900002 4.1100001 1.96
-4.0900002 4.1100001 2.0599999
-4.0900002 4.1100001 2.1600001
-4.0900002 4.1100001 2.26
-4.0900002 4.1100001 2.3599999
-4.0900002 4.1100001 2.46
-4.0900002 4.1100001 2.5599999
-4.0900002 4.1100001 2.6600001
-4.0900002 4.1100001 2.76
-4.0900002 4.1100001 2.8599999
-4.0900002 4.21 -0.94
-4.0900002 4.21 -0.83999997
-4.0900002 4.21 -0.74000001
-4.0900002 4.21 -0.63999999
-4.0900002 4.21 -0.54000002
-4.0900002 4.21 -0.44
-4.0900002 4.21 -0.34
-4.0900002 4.21 -0.23999999
-4.0900002 4.21 -0.14
-4.0900002 4.21 -0.039999999
-4.0900002 4.21 0.059999999
-4.0900002 4.21 0.16
-4.0900002 4.21 0.25999999
-4.0900002 4.21 0.36000001
-4.0900002 4.21 0.46000001
-4.0900002 4.21 0.56
-4.0900002 4.21 0.66000003
-4.0900002 4.21 0.75999999
-4.0900002 4.21 0.86000001
-4.0900002 4.21 0.95999998
-4.0900002 4.21 1.0599999
-4.0900002 4.21 1.16
-4.0900002 4.21 1.26
-4.0900002 4.21 1.36
-4.0900002 4.21 1.46
-4.0900002 4.21 1.5599999
-4.0900002 4.21 1.66
-4.0900002 4.21 1.76
-4.0900002 4.21 1.86
-4.0900002 4.21 1.96
-4.0900002 4.21 2.0599999
-4.0900002 4.21 2.1600001
-4.0900002 4.21 2.26
-4.0900002 4.21 2.3599999
-4.0900002 4.21 2.46
-4.0900002 4.21 2.5599999
-4.0900002 4.21 2.6600001
1.01 -6.3899999 -0.94
1.01 -6.3899999 -0.83999997
1.01 -6.3899999 -0.74000001
1.01 -6.3899999 -0.63999999
1.01 -6.3899999 -0.54000002
1.01 -6.3899999 -0.44
1.01 -6.3899999 -0.34
1.01 -6.3899999 -0.23999999
1.01 -6.3899999 -0.14
1.01 -6.3899999 -0.039999999
1.01 -6.3899999 0.059999999
1.01 -6.3899999 0.16
1.01 -6.3899999 0.25999999
1.01 -6.3899999 0.36000001
1.01 -6.3899999 0.46000001
1.01 -6.3899999 0.56
1.01 -6.3899999 0.66000003
1.01 -6.3899999 0.75999999
1.01 -6.3899999 0.86000001
1.01 -6.3899999 0.95999998
1.01 -6.3899999 1.0599999
1.01 -6.3899999 1.16
1.01 -6.3899999 1.26
1.01 -6.3899999 1.36
1.01 -6.3899999 1.46
1.01 -6.3899999 1.5599999
1.01 -6.3899999 1.66
1.01 -6.3899999 1.76
1.01 -6.3899999 1.86
1.01 -6.3899999 1.96
1.01 -6.3899999 2.0599999
1.01 -6.3899999 2.1600001
1.01 -6.3899999 2.26
1.01 -6.29 -0.94
1.01 -6.29 -0.83999997
1.01 -6.29 -0.74000001
1.01 -6.29 -0.63999999
1.01 -6.29 -0.54000002
1.01 -6.29 -0.44
1.01 -6.29 -0.34
1.01 -6.29 -0.23999999
1.01 -6.29 -0.14
1.01 -6.29 -0.039999999
1.01 -6.29 0.059999999
1.01 -6.29 0.16
1.01 -6.29 0.25999999
1.01 -6.29 0.36000001
1.01 -6.29 0.46000001
1.01 -6.29 0.56
1.01 -6.29 0.66000003
1.01 -6.29 0.75999999
1.01 -6.29 0.86000001
1.01 -6.29 0.95999998
1.01 -6.29 1.0599999
1.11 -6.4899998 -0.94
1.11 -6.4899998 -0.83999997
1.11 -6.4899998 -0.74000001
1.11 -6.4899998 -0.63999999
1.11 -6.4899998 -0.54000002
1.11 -6.4899998 -0.44
1.11 -6.4899998 -0.34
1.11 -6.4899998 -0.23999999
1.11 -6.4899998 -0.14
1.11 -6.4899998 -0.039999999
1.11 -6.4899998 0.059999999
1.11 -6.4899998 0.16
1.11 -6.4899998 0.25999999
1.11 -6.4899998 0.36000001
1.11 -6.4899998 0.46000001
1.11 -6.4899998 0.56
1.11 -6.4899998 0.66000003
1.11 -6.4899998 0.75999999
1.11 -6.4899998 0.86000001
1.11 -6.4899998 0.95999998
1.11 -6.4899998 1.0599999
1.11 -6.4899998 1.16
1.11 -6.4899998 1.26
1.11 -6.3899999 -0.94
1.11 -6.3899999 -0.83999997
1.11 -6.3899999 -0.74000001
1.11 -6.3899999 -0.63999999
1.11 -6.3899999 -0.54000002
1.11 -6.3899999 -0.44
1.11 -6.3899999 -0.34
1.11 -6.3899999 -0.23999999
1.11 -6.3899999 -0.14
1.11 -6.3899999 -0.039999999
1.11 -6.3899999 0.059999999
1.11 -6.3899999 0.16
1.11 -6.3899999 0.25999999
1.11 -6.3899999 0.36000001
1.11 -6.3899999 0.46000001
1.11 -6.3899999 0.56
1.11 -6.3899999 0.66000003
1.11 -6.3899999 0.75999999
1.11 -6.3899999 0.86000001
1.11 -6.3899999 0.95999998
1.11 -6.3899999 1.0599999
1.11 -6.3899999 1.16
1.11 -6.3899999 1.26
1.11 -6.3899999 1.36
1.11 -6.3899999 1.46
1.11 -6.3899999 1.5599999
1.11 -6.29 -0.94
1.11 -6.29 -0.83999997
1.11 -6.29 -0.74000001
1.11 -6.29 -0.63999999
1.11 -6.29 -0.54000002
1.11 -6.29 -0.44
1.11 -6.29 -0.34
1.11 -6.29 -0.23999999
1.11 -6.29 -0.14
1.11 -6.29 -0.039999999
1.11 -6.29 0.059999999
1.11 -6.29 0.16
1.11 -6.29 0.25999999
1.11 -6.29 0.36000001
1.11 -6.29 0.46000001
1.11 -6.29 0.56
1.11 -6.29 0.66000003
1.11 -6.29 0.75999999
1.11 -6.29 0.86000001
1.11 -6.29 0.95999998
1.11 -6.29 1.0599999
1.11 -6.29 1.16
1.11 -6.29 1.26
1.11 -6.29 1.36
1.11 -6.29 1.46
1.11 -6.29 1.5599999
1.11 -6.29 1.66
1.11 -6.29 1.76
1.11 -6.29 1.86
1.11 -6.29 1.96
1.11 -6.29 2.0599999
1.11 -6.29 2.1600001
1.11 -6.29 2.26
1.11 -6.29 2.3599999
1.11 -6.29 2.46
1.11 -6.29 2.5599999
1.11 -6.29 2.6600001
1.11 -6.29 2.76
1.11 -6.1900001 -0.94
1.11 -6.1900001 -0.83999997
1.11 -6.1900001 -0.74000001
1.11 -6.1900001 -0.63999999
1.11 -6.1900001 -0.54000002
1.11 -6.1900001 -0.44
1.11 -6.1900001 -0.34
1.11 -6.1900001 -0.23999999
1.11 -6.1900001 -0.14
1.11 -6.1900001 -0.039999999
1.11 -6.1900001 0.059999999
1.11 -6.1900001 0.16
1.11 -6.1900001 0.25999999
1.11 -6.1900001 0.36000001
1.11 -6.1900001 0.46000001
1.11 -6.1900001 0.56
1.11 -6.1900001 0.66000003
1.11 -6.1900001 0.75999999
1.11 -6.1900001 0.86000001
1.11 -6.1900001 0.95999998
1.11 -6.1900001 1.0599999
1.11 -6.1900001 1.16
1.11 -6.1900001 1.26
1.11 -6.1900001 1.36
1.11 -6.1900001 1.46
1.11 -6.1900001 1.5599999
1.11 -6.1900001 1.66
1.11 -6.1900001 1.76
1.21 -6.4899998 -0.94
1.21 -6.4899998 -0.83999997
1.21 -6.4899998 -0.74000001
1.21 -6.4899998 -0.63999999
1.21 -6.4899998 -0.54000002
1.21 -6.4899998 -0.44
1.21 -6.4899998 -0.34
1.21 -6.4899998 -0.23999999
1.21 -6.4899998 -0.14
1.21 -6.4899998 -0.039999999
1.21 -6.4899998 0.059999999
1.21 -6.3899999 -0.94
1.21 -6.3899999 -0.83999997
1.21 -6.3899999 -0.74000001
1.21 -6.3899999 -0.63999999
1.21 -6.3899999 -0.54000002
1.21 -6.3899999 -0.44
1.21 -6.3899999 -0.34
1.21 -6.3899999 -0.23999999
1.21 -6.3899999 -0.14
1.21 -6.3899999 -0.039999999
1.21 -6.3899999 0.059999999
1.21 -6.3899999 0.16
1.21 -6.3899999 0.25999999
1.21 -6.3899999 0.36000001
1.21 -6.3899999 0.46000001
1.21 -6.3899999 0.56
1.21 -6.3899999 0.66000003
1.21 -6.29 -0.94
1.21 -6.29 -0.83999997
1.21 -6.29 -0.74000001
1.21 -6.29 -0.63999999
1.21 -6.29 -0.54000002
1.21 -6.29 -0.44
1.21 -6.29 -0.34
1.21 -6.29 -0.23999999
1.21 -6.29 -0.14
1.21 -6.29 -0.039999999
1.21 -6.29 0.059999999
1.21 -6.29 0.16
1.21 -6.29 0.25999999
1.21 -6.29 0.36000001
1.21 -6.29 0.46000001
1.21 -6.29 0.56
1.21 -6.29 0.66000003
1.21 -6.29 0.75999999
1.21 -6.29 0.86000001
1.21 -6.29 0.95999998
1.21 -6.29 1.0599999
1.21 -6.29 1.16
1.21 -6.29 1.26
1.21 -6.29 1.36
1.21 -6.29 1.46
1.21 -6.29 1.5599999
1.21 -6.29 1.66
1.21 -6.29 1.76
1.21 -6.29 1.86
1.21 -6.29 1.96
1.21 -6.29 2.0599999
1.21 -6.29 2.1600001
1.21 -6.29 2.26
1.21 -6.29 2.3599999
1.21 -6.1900001 -0.94
1.21 -6.1900001 -0.83999997
1.21 -6.1900001 -0.74000001
1.21 -6.1900001 -0.63999999
1.21 -6.1900001 -0.54000002
1.21 -6.1900001 -0.44
1.21 -6.1900001 -0.34
1.21 -6.1900001 -0.23999999
1.21 -6.1900001 -0.14
1.21 -6.1900001 -0.039999999
1.21 -6.1900001 0.059999999
1.21 -6.1900001 0.16
1.21 -6.1900001 0.25999999
1.21 -6.1900001 0.36000001
1.21 -6.1900001 0.46000001
1.21 -6.1900001 0.56
1.21 -6.1900001 0.66000003
1.21 -6.1900001 0.75999999
1.21 -6.1900001 0.86000001
1.21 -6.1900001 0.95999998
1.21 -6.1900001 1.0599999
1.21 -6.1900001 1.16
1.21 -6.1900001 1.26
1.3099999 -6.3899999 -0.94
1.3099999 -6.3899999 -0.83999997
1.3099999 -6.3899999 -0.74000001
1.3099999 -6.3899999 -0.63999999
1.3099999 -6.3899999 -0.54000002
1.3099999 -6.3899999 -0.44
1.3099999 -6.3899999 -0.34
1.3099999 -6.3899999 -0.23999999
1.3099999 -6.3899999 -0.14
1.3099999 -6.3899999 -0.039999999
1.3099999 -6.3899999 0.059999999
1.3099999 -6.3899999 0.16
1.3099999 -6.3899999 0.25999999
1.3099999 -6.3899999 0.36000001
1.3099999 -6.3899999 0.46000001
1.3099999 -6.3899999 0.56
1.3099999 -6.3899999 0.66000003
1.3099999 -6.3899999 0.75999999
1.3099999 -6.3899999 0.86000001
1.3099999 -6.3899999 0.95999998
1.3099999 -6.3899999 1.0599999
1.3099999 -6.3899999 1.16
1.3099999 -6.3899999 1.26
1.3099999 -6.3899999 1.36
1.3099999 -6.3899999 1.46
1.3099999 -6.3899999 1.5599999
1.3099999 -6.3899999 1.66
1.3099999 -6.29 -0.94
1.3099999 -6.29 -0.83999997
1.3099999 -6.29 -0.74000001
1.3099999 -6.29 -0.63999999
1.3099999 -6.29 -0.54000002
1.3099999 -6.29 -0.44
1.3099999 -6.29 -0.34
1.3099999 -6.29 -0.23999999
1.3099999 -6.29 -0.14
1.3099999 -6.29 -0.039999999
1.3099999 -6.29 0.059999999
1.3099999 -6.29 0.16
1.3099999 -6.29 0.25999999
1.3099999 -6.29 0.36000001
1.3099999 -6.29 0.46000001
1.3099999 -6.29 0.56
1.3099999 -6.29 0.66000003
1.3099999 -6.29 0.75999999
1.3099999 -6.29 0.86000001
1.3099999 -6.29 0.95999998
1.3099999 -6.29 1.0599999
6.0100002 -5.9899998 -0.94
6.0100002 -5.9899998 -0.83999997
6.0100002 -5.9899998 -0.74000001
6.0100002 -5.9899998 -0.63999999
6.0100002 -5.9899998 -0.54000002
6.0100002 -5.9899998 -0.44
6.0100002 -5.9899998 -0.34
6.0100002 -5.9899998 -0.23999999
6.0100002 -5.9899998 -0.14
6.0100002 -5.9899998 -0.039999999
6.0100002 -5.9899998 0.059999999
6.0100002 -5.9899998 0.16
6.0100002 -5.9899998 0.25999999
6.0100002 -5.9899998 0.36000001
6.0100002 -5.9899998 0.46000001
6.0100002 -5.9899998 0.56
6.0100002 -5.9899998 0.66000003
6.0100002 -5.9899998 0.75999999
6.0100002 -5.9899998 0.86000001
6.0100002 -5.9899998 0.95999998
6.0100002 -5.9899998 1.0599999
6.0100002 -5.9899998 1.16
6.0100002 -5.9899998 1.26
6.0100002 -5.9899998 1.36
6.0100002 -5.9899998 1.46
6.0100002 -5.9899998 1.5599999
6.0100002 -5.9899998 1.66
6.0100002 -5.9899998 1.76
6.0100002 -5.9899998 1.86
6.0100002 -5.9899998 1.96
6.0100002 -5.9899998 2.0599999
6.0100002 -5.9899998 2.1600001
6.0100002 -5.8899999 -0.94
6.0100002 -5.8899999 -0.83999997
6.0100002 -5.8899999 -0.74000001
6.0100002 -5.8899999 -0.63999999
6.0100002 -5.8899999 -0.54000002
6.0100002 -5.8899999 -0.44
6.0100002 -5.8899999 -0.34
6.0100002 -5.8899999 -0.23999999
6.0100002 -5.8899999 -0.14
6.0100002 -5.8899999 -0.039999999
6.0100002 -5.8899999 0.059999999
6.0100002 -5.8899999 0.16
6.0100002 -5.8899999 0.25999999
6.0100002 -5.8899999 0.36000001
6.0100002 -5.8899999 0.46000001
6.0100002 -5.8899999 0.56
6.0100002 -5.8899999 0.66000003
6.0100002 -5.8899999 0.75999999
6.0100002 -5.8899999 0.86000001
6.0100002 -5.8899999 0.95999998
6.0100002 -5.8899999 1.0599999
6.0100002 -5.8899999 1.16
6.0100002 -5.79 -0.94
6.0100002 -5.79 -0.83999997
6.0100002 -5.79 -0.74000001
6.0100002 -5.79 -0.63999999
6.0100002 -5.79 -0.54000002
6.0100002 -5.79 -0.44
6.0100002 -5.79 -0.34
6.0100002 -5.79 -0.23999999
6.0100002 -5.79 -0.14
6.0100002 -5.79 -0.039999999
6.0100002 -5.79 0.059999999
6.0100002 -5.79 0.16
6.0100002 -5.79 0.25999999
6.0100002 -5.79 0.36000001
6.0100002 -5.79 0.46000001
6.0100002 -5.79 0.56
6.0100002 -5.79 0.66000003
6.0100002 -5.79 0.75999999
6.0100002 -5.79 0.86000001
6.0100002 -5.79 0.95999998
6.0100002 -5.79 1.0599999
6.0100002 -5.79 1.16
6.0100002 -5.79 1.26
6.0100002 -5.79 1.36
6.0100002 -5.79 1.46
6.0100002 -5.79 1.5599999
6.0100002 -5.79 1.66
6.0100002 -5.6900001 -0.94
6.0100002 -5.6900001 -0.83999997
6.0100002 -5.6900001 -0.74000001
6.0100002 -5.6900001 -0.63999999
6.0100002 -5.6900001 -0.54000002
6.0100002 -5.6900001 -0.44
6.0100002 -5.6900001 -0.34
6.0100002 -5.6900001 -0.23999999
6.0100002 -5.6900001 -0.14
6.0100002 -5.6900001 -0.039999999
6.0100002 -5.6900001 0.059999999
6.0100002 -5.6900001 0.16
6.0100002 -5.6900001 0.25999999
6.0100002 -5.6900001 0.36000001
6.0100002 -5.6900001 0.46000001
6.0100002 -5.6900001 0.56
6.0100002 -5.6900001 0.66000003
6.0100002 -5.6900001 0.75999999
6.0100002 -5.6900001 0.86000001
6.0100002 -5.6900001 0.95999998
6.0100002 -5.6900001 1.0599999
6.0100002 -5.6900001 1.16
6.0100002 -5.6900001 1.26
6.0100002 -5.6900001 1.36
6.0100002 -5.6900001 1.46
6.0100002 -5.6900001 1.5599999
6.0100002 -5.6900001 1.66
6.0100002 -5.6900001 1.76
6.0100002 -5.6900001 1.86
6.0100002 -5.6900001 1.96
6.0100002 -5.6900001 2.0599999
6.0100002 -5.6900001 2.1600001
6.0100002 -5.6900001 2.26
6.0100002 -5.6900001 2.3599999
6.0100002 -5.6900001 2.46
6.0100002 -5.6900001 2.5599999
6.0100002 -5.6900001 2.6600001
6.0100002 -5.6900001 2.76
6.0100002 -5.6900001 2.8599999
6.0100002 -5.6900001 2.96
6.1100001 -5.9899998 -0.94
6.1100001 -5.9899998 -0.83999997
6.1100001 -5.9899998 -0.74000001
6.1100001 -5.9899998 -0.63999999
6.1100001 -5.9899998 -0.54000002
6.1100001 -5.9899998 -0.44
6.1100001 -5.9899998 -0.34
6.1100001 -5.9899998 -0.23999999
6.1100001 -5.9899998 -0.14
6.1100001 -5.9899998 -0.039999999
6.1100001 -5.9899998 0.059999999
6.1100001 -5.9899998 0.16
6.1100001 -5.9899998 0.25999999
6.1100001 -5.9899998 0.36000001
6.1100001 -5.9899998 0.46000001
6.1100001 -5.9899998 0.56
6.1100001 -5.9899998 0.66000003
6.1100001 -5.9899998 0.75999999
6.1100001 -5.9899998 0.86000001
6.1100001 -5.9899998 0.95999998
6.1100001 -5.9899998 1.0599999
6.1100001 -5.9899998 1.16
6.1100001 -5.9899998 1.26
6.1100001 -5.9899998 1.36
6.1100001 -5.9899998 1.46
6.1100001 -5.9899998 1.5599999
6.1100001 -5.9899998 1.66
6.1100001 -5.9899998 1.76
6.1100001 -5.9899998 1.86
6.1100001 -5.9899998 1.96
6.1100001 -5.9899998 2.0599999
6.1100001 -5.9899998 2.1600001
6.1100001 -5.9899998 2.26
6.1100001 -5.9899998 2.3599999
6.1100001 -5.9899998 2.46
6.1100001 -5.9899998 2.5599999
6.1100001 -5.8899999 -0.94
6.1100001 -5.8899999 -0.83999997
6.1100001 -5.8899999 -0.74000001
6.1100001 -5.8899999 -0.63999999
6.1100001 -5.8899999 -0.54000002
6.1100001 -5.8899999 -0.44
6.1100001 -5.8899999 -0.34
6.1100001 -5.8899999 -0.23999999
6.1100001 -5.8899999 -0.14
6.1100001 -5.8899999 -0.039999999
6.1100001 -5.8899999 0.059999999
6.1100001 -5.8899999 0.16
6.1100001 -5.8899999 0.25999999
6.1100001 -5.8899999 0.36000001
6.1100001 -5.8899999 0.46000001
6.1100001 -5.8899999 0.56
6.1100001 -5.8899999 0.66000003
6.1100001 -5.8899999 0.75999999
6.1100001 -5.8899999 0.86000001
6.1100001 -5.8899999 0.95999998
6.1100001 -5.8899999 1.0599999
6.1100001 -5.8899999 1.16
6.1100001 -5.8899999 1.26
6.1100001 -5.8899999 1.36
6.1100001 -5.79 -0.94
6.1100001 -5.79 -0.83999997
6.1100001 -5.79 -0.74000001
6.1100001 -5.79 -0.63999999
6.1100001 -5.79 -0.54000002
6.1100001 -5.79 -0.44
6.1100001 -5.79 -0.34
6.1100001 -5.79 -0.23999999
6.1100001 -5.79 -0.14
6.1100001 -5.79 -0.039999999
6.1100001 -5.79 0.059999999
6.1100001 -5.79 0.16
6.1100001 -5.79 0.25999999
6.1100001 -5.79 0.36000001
6.1100001 -5.79 0.46000001
6.1100001 -5.79 0.56
6.1100001 -5.79 0.66000003
6.1100001 -5.79 0.75999999
6.1100001 -5.79 0.86000001
6.1100001 -5.79 0.95999998
6.1100001 -5.79 1.0599999
6.1100001 -5.6900001 -0.94
6.1100001 -5.6900001 -0.83999997
6.1100001 -5.6900001 -0.74000001
6.1100001 -5.6900001 -0.63999999
6.1100001 -5.6900001 -0.54000002
6.1100001 -5.6900001 -0.44
6.1100001 -5.6900001 -0.34
6.1100001 -5.6900001 -0.23999999
6.1100001 -5.6900001 -0.14
6.1100001 -5.6900001 -0.039999999
6.1100001 -5.6900001 0.059999999
6.1100001 -5.6900001 0.16
6.1100001 -5.6900001 0.25999999
6.1100001 -5.6900001 0.36000001
6.1100001 -5.6900001 0.46000001
6.1100001 -5.6900001 0.56
6.1100001 -5.6900001 0.66000003
6.1100001 -5.6900001 0.75999999
6.1100001 -5.6900001 0.86000001
6.1100001 -5.6900001 0.95999998
6.1100001 -5.6900001 1.0599999
6.1100001 -5.6900001 1.16
6.21 -5.9899998 -0.94
6.21 -5.9899998 -0.83999997
6.21 -5.9899998 -0.74000001
6.21 -5.9899998 -0.63999999
6.21 -5.9899998 -0.54000002
6.21 -5.9899998 -0.44
6.21 -5.9899998 -0.34
6.21 -5.9899998 -0.23999999
6.21 -5.9899998 -0.14
6.21 -5.9899998 -0.039999999
6.21 -5.9899998 0.059999999
6.21 -5.9899998 0.16
6.21 -5.9899998 0.25999999
6.21 -5.9899998 0.36000001
6.21 -5.9899998 0.46000001
6.21 -5.9899998 0.56
6.21 -5.8899999 -0.94
6.21 -5.8899999 -0.83999997
6.21 -5.8899999 -0.74000001
6.21 -5.8899999 -0.63999999
6.21 -5.8899999 -0.54000002
6.21 -5.8899999 -0.44
6.21 -5.8899999 -0.34
6.21 -5.8899999 -0.23999999
6.21 -5.8899999 -0.14
6.21 -5.8899999 -0.039999999
6.21 -5.8899999 0.059999999
6.21 -5.8899999 0.16
6.21 -5.8899999 0.25999999
6.21 -5.8899999 0.36000001
6.21 -5.8899999 0.46000001
6.21 -5.8899999 0.56
6.21 -5.79 -0.94
6.21 -5.79 -0.83999997
6.21 -5.79 -0.74000001
6.21 -5.79 -0.63999999
6.21 -5.79 -0.54000002
6.21 -5.79 -0.44
6.21 -5.79 -0.34
6.21 -5.79 -0.23999999
6.21 -5.79 -0.14
6.21 -5.79 -0.039999999
6.21 -5.79 0.059999999
6.21 -5.79 0.16
6.21 -5.79 0.25999999
6.21 -5.79 0.36000001
6.21 -5.79 0.46000001
6.21 -5.79 0.56
6.21 -5.79 0.66000003
6.21 -5.79 0.75999999
6.21 -5.79 0.86000001
6.21 -5.79 0.95999998
6.21 -5.79 1.0599999
6.21 -5.79 1.16
6.21 -5.79 1.26
6.21 -5.79 1.36
6.21 -5.6900001 -0.94
6.21 -5.6900001 -0.83999997
6.21 -5.6900001 -0.74000001
6.21 -5.6900001 -0.63999999
6.21 -5.6900001 -0.54000002
6.21 -5.6900001 -0.44
6.21 -5.6900001 -0.34
6.21 -5.6900001 -0.23999999
6.21 -5.6900001 -0.14
6.21 -5.6900001 -0.039999999
6.21 -5.6900001 0.059999999
6.21 -5.6900001 0.16
6.21 -5.6900001 0.25999999
6.21 -5.6900001 0.36000001
6.21 -5.6900001 0.46000001
6.21 -5.6900001 0.56
6.21 -5.6900001 0.66000003
6.21 -5.6900001 0.75999999
6.21 -5.6900001 0.86000001
6.21 -5.6900001 0.95999998
6.21 -5.6900001 1.0599999
6.21 -5.6900001 1.16
6.21 -5.6900001 1.26
6.21 -5.6900001 1.36
6.21 -5.6900001 1.46
6.21 -5.6900001 1.5599999
6.21 -5.6900001 1.66
6.21 -5.6900001 1.76
6.21 -5.6900001 1.86
6.21 -5.6900001 1.96
6.21 -5.6900001 2.0599999
6.21 -5.6900001 2.1600001
6.21 -5.6900001 2.26
6.21 -5.6900001 2.3599999
6.3099999 -5.9899998 -0.94
6.3099999 -5.9899998 -0.83999997
6.3099999 -5.9899998 -0.74000001
6.3099999 -5.9899998 -0.63999999
6.3099999 -5.9899998 -0.54000002
6.3099999 -5.9899998 -0.44
6.3099999 -5.9899998 -0.34
6.3099999 -5.9899998 -0.23999999
6.3099999 -5.9899998 -0.14
6.3099999 -5.9899998 -0.039999999
6.3099999 -5.9899998 0.059999999
6.3099999 -5.9899998 0.16
6.3099999 -5.9899998 0.25999999
6.3099999 -5.9899998 0.36000001
6.3099999 -5.9899998 0.46000001
6.3099999 -5.9899998 0.56
6.3099999 -5.9899998 0.66000003
6.3099999 -5.9899998 0.75999999
6.3099999 -5.8899999 -0.94
6.3099999 -5.8899999 -0.83999997
6.3099999 -5.8899999 -0.74000001
6.3099999 -5.8899999 -0.63999999
6.3099999 -5.8899999 -0.54000002
6.3099999 -5.8899999 -0.44
6.3099999 -5.8899999 -0.34
6.3099999 -5.8899999 -0.23999999
6.3099999 -5.8899999 -0.14
6.3099999 -5.8899999 -0.039999999
6.3099999 -5.8899999 0.059999999
6.3099999 -5.8899999 0.16
6.3099999 -5.8899999 0.25999999
6.3099999 -5.8899999 0.36000001
6.3099999 -5.8899999 0.46000001
6.3099999 -5.8899999 0.56
6.3099999 -5.8899999 0.66000003
6.3099999 -5.8899999 0.75999999
6.3099999 -5.8899999 0.86000001
6.3099999 -5.8899999 0.95999998
6.3099999 -5.8899999 1.0599999
6.3099999 -5.8899999 1.16
6.3099999 -5.8899999 1.26
6.3099999 -5.8899999 1.36
6.3099999 -5.8899999 1.46
6.3099999 -5.8899999 1.5599999
6.3099999 -5.8899999 1.66
6.3099999 -5.8899999 1.76
6.3099999 -5.8899999 1.86
6.3099999 -5.8899999 1.96
6.3099999 -5.8899999 2.0599999
6.3099999 -5.8899999 2.1600001
6.3099999 -5.8899999 2.26
6.3099999 -5.8899999 2.3599999
6.3099999 -5.8899999 2.46
6.3099999 -5.8899999 2.5599999
6.3099999 -5.8899999 2.6600001
6.3099999 -5.8899999 2.76
6.3099999 -5.79 -0.94
6.3099999 -5.79 -0.83999997
6.3099999 -5.79 -0.74000001
6.3099999 -5.79 -0.63999999
6.3099999 -5.79 -0.54000002
6.3099999 -5.79 -0.44
6.3099999 -5.79 -0.34
6.3099999 -5.79 -0.23999999
6.3099999 -5.79 -0.14
6.3099999 -5.79 -0.039999999
6.3099999 -5.79 0.059999999
6.3099999 -5.79 0.16
6.3099999 -5.6900001 -0.94
6.3099999 -5.6900001 -0.83999997
6.3099999 -5.6900001 -0.74000001
6.3099999 -5.6900001 -0.63999999
6.3099999 -5.6900001 -0.54000002
6.3099999 -5.6900001 -0.44
6.3099999 -5.6900001 -0.34
6.3099999 -5.6900001 -0.23999999
6.3099999 -5.6900001 -0.14
6.3099999 -5.6900001 -0.039999999
6.3099999 -5.6900001 0.059999999
6.3099999 -5.6900001 0.16
6.3099999 -5.6900001 0.25999999
6.3099999 -5.6900001 0.36000001
6.3099999 -5.6900001 0.46000001
6.3099999 -5.6900001 0.56
2.1099999 -6.9899998 -0.94
2.1099999 -6.9899998 -0.83999997
2.1099999 -6.9899998 -0.74000001
2.1099999 -6.9899998 -0.63999999
2.1099999 -6.9899998 -0.54000002
2.1099999 -6.9899998 -0.44
2.1099999 -6.9899998 -0.34
2.1099999 -6.9899998 -0.23999999
2.1099999 -6.9899998 -0.14
2.1099999 -6.9899998 -0.039999999
2.1099999 -6.9899998 0.059999999
2.1099999 -6.9899998 0.16
2.1099999 -6.9899998 0.25999999
2.1099999 -6.9899998 0.36000001
2.1099999 -6.9899998 0.46000001
2.1099999 -6.9899998 0.56
2.1099999 -6.9899998 0.66000003
2.1099999 -6.8899999 -0.94
2.1099999 -6.8899999 -0.83999997
2.1099999 -6.8899999 -0.74000001
2.1099999 -6.8899999 -0.63999999
2.1099999 -6.8899999 -0.54000002
2.1099999 -6.8899999 -0.44
2.1099999 -6.8899999 -0.34
2.1099999 -6.8899999 -0.23999999
2.1099999 -6.8899999 -0.14
2.1099999 -6.8899999 -0.039999999
2.1099999 -6.8899999 0.059999999
2.1099999 -6.8899999 0.16
2.1099999 -6.8899999 0.25999999
2.1099999 -6.8899999 0.36000001
2.1099999 -6.8899999 0.46000001
2.1099999 -6.8899999 0.56
2.1099999 -6.8899999 0.66000003
2.1099999 -6.8899999 0.75999999
2.1099999 -6.8899999 0.86000001
2.1099999 -6.8899999 0.95999998
2.1099999 -6.8899999 1.0599999
2.1099999 -6.8899999 1.16
2.1099999 -6.8899999 1.26
2.1099999 -6.8899999 1.36
2.1099999 -6.8899999 1.46
2.1099999 -6.8899999 1.5599999
2.1099999 -6.8899999 1.66
2.1099999 -6.8899999 1.76
2.1099999 -6.79 -0.94
2.1099999 -6.79 -0.83999997
2.1099999 -6.79 -0.74000001
2.1099999 -6.79 -0.63999999
2.1099999 -6.79 -0.54000002
2.1099999 -6.79 -0.44
2.1099999 -6.79 -0.34
2.1099999 -6.79 -0.23999999
2.1099999 -6.79 -0.14
2.1099999 -6.79 -0.039999999
2.1099999 -6.79 0.059999999
2.1099999 -6.79 0.16
2.1099999 -6.79 0.25999999
2.1099999 -6.79 0.36000001
2.1099999 -6.79 0.46000001
2.1099999 -6.6900001 -0.94
2.1099999 -6.6900001 -0.83999997
2.1099999 -6.6900001 -0.74000001
2.1099999 -6.6900001 -0.63999999
2.1099999 -6.6900001 -0.54000002
2.1099999 -6.6900001 -0.44
2.1099999 -6.6900001 -0.34
2.1099999 -6.6900001 -0.23999999
2.1099999 -6.6900001 -0.14
2.1099999 -6.6900001 -0.039999999
2.1099999 -6.6900001 0.059999999
2.1099999 -6.6900001 0.16
2.1099999 -6.6900001 0.25999999
2.1099999 -6.6900001 0.36000001
2.1099999 -6.6900001 0.46000001
2.1099999 -6.6900001 0.56
2.21 -7.0900002 -0.94
2.21 -7.0900002 -0.83999997
2.21 -7.0900002 -0.74000001
2.21 -7.0900002 -0.63999999
2.21 -7.0900002 -0.54000002
2.21 -7.0900002 -0.44
2.21 -7.0900002 -0.34
2.21 -7.0900002 -0.23999999
2.21 -7.0900002 -0.14
2.21 -7.0900002 -0.039999999
2.21 -7.0900002 0.059999999
2.21 -7.0900002 0.16
2.21 -7.0900002 0.25999999
2.21 -7.0900002 0.36000001
2.21 -7.0900002 0.46000001
2.21 -7.0900002 0.56
2.21 -7.0900002 0.66000003
2.21 -7.0900002 0.75999999
2.21 -7.0900002 0.86000001
2.21 -7.0900002 0.95999998
2.21 -7.0900002 1.0599999
2.21 -7.0900002 1.16
2.21 -7.0900002 1.26
2.21 -7.0900002 1.36
2.21 -7.0900002 1.46
2.21 -7.0900002 1.5599999
2.21 -7.0900002 1.66
2.21 -7.0900002 1.76
2.21 -7.0900002 1.86
2.21 -6.9899998 -0.94
2.21 -6.9899998 -0.83999997
2.21 -6.9899998 -0.74000001
2.21 -6.9899998 -0.63999999
2.21 -6.9899998 -0.54000002
2.21 -6.9899998 -0.44
2.21 -6.9899998 -0.34
2.21 -6.9899998 -0.23999999
2.21 -6.9899998 -0.14
2.21 -6.9899998 -0.039999999
2.21 -6.9899998 0.059999999
2.21 -6.9899998 0.16
2.21 -6.9899998 0.25999999
2.21 -6.9899998 0.36000001
2.21 -6.9899998 0.46000001
2.21 -6.9899998 0.56
2.21 -6.9899998 0.66000003
2.21 -6.9899998 0.75999999
2.21 -6.9899998 0.86000001
2.21 -6.9899998 0.95999998
2.21 -6.9899998 1.0599999
2.21 -6.9899998 1.16
2.21 -6.9899998 1.26
2.21 -6.9899998 1.36
2.21 -6.9899998 1.46
2.21 -6.9899998 1.5599999
2.21 -6.9899998 1.66
2.21 -6.9899998 1.76
2.21 -6.9899998 1.86
2.21 -6.9899998 1.96
2.21 -6.9899998 2.0599999
2.21 -6.8899999 -0.94
2.21 -6.8899999 -0.83999997
2.21 -6.8899999 -0.74000001
2.21 -6.8899999 -0.63999999
2.21 -6.8899999 -0.54000002
2.21 -6.8899999 -0.44
2.21 -6.8899999 -0.34
2.21 -6.8899999 -0.23999999
2.21 -6.8899999 -0.14
2.21 -6.8899999 -0.039999999
2.21 -6.8899999 0.059999999
2.21 -6.8899999 0.16
2.21 -6.8899999 0.25999999
2.21 -6.8899999 0.36000001
2.21 -6.8899999 0.46000001
2.21 -6.8899999 0.56
2.21 -6.8899999 0.66000003
2.21 -6.8899999 0.75999999
2.21 -6.8899999 0.86000001
2.21 -6.8899999 0.95999998
2.21 -6.8899999 1.0599999
2.21 -6.8899999 1.16
2.21 -6.8899999 1.26
2.21 -6.8899999 1.36
2.21 -6.8899999 1.46
2.21 -6.8899999 1.5599999
2.21 -6.8899999 1.66
2.21 -6.8899999 1.76
2.21 -6.8899999 1.86
2.21 -6.8899999 1.96
2.21 -6.8899999 2.0599999
2.21 -6.8899999 2.1600001
2.21 -6.8899999 2.26
2.21 -6.8899999 2.3599999
