# .PCD v0.7 - Point Cloud Data file format
VERSION 0.7
FIELDS x y z
SIZE 4 4 4
TYPE F F F
COUNT 1 1 1
WIDTH 1628
HEIGHT 1
VIEWPOINT 0 0 0 1 0 0 0
POINTS 1628
DATA ascii
-0.058729768 5.5269127 -0.2
-0.058729768 5.5269127 -0.1
-0.058729768 5.5269127 -2.7755576e-17
-0.058729768 5.5269127 0.1
-0.058729768 5.5269127 0.2
-0.058729768 5.5269127 0.30000001
-0.058729768 5.5269127 0.40000001
-0.058729768 5.5269127 0.5
-0.058729768 5.5269127 0.60000002
-0.058729768 5.5269127 0.69999999
-0.058729768 5.5269127 0.80000001
-0.058729768 5.5269127 0.89999998
-0.058729768 5.5269127 1
-0.058729768 5.5269127 1.1
-0.058729768 5.5269127 1.2
-0.058729768 5.5269127 1.3
-0.058729768 5.5269127 1.4
-0.058729768 5.5269127 1.5
-0.058729768 5.5269127 1.6
-0.058729768 5.5269127 1.7
-0.058729768 5.5269127 1.8
-0.058729768 5.5269127 1.9
-0.058729768 5.5269127 2
-0.058729768 5.5269127 2.0999999
-0.058729768 5.5269127 2.2
-0.058729768 5.5269127 2.3
-0.058729768 5.5269127 2.4000001
-0.058729768 5.5269127 2.5
-0.058729768 5.5269127 2.5999999
-0.058729768 5.5269127 2.7
-0.058729768 5.5269127 2.8
-0.058729768 5.5269127 2.9000001
-0.058729768 5.5269127 3
-0.058729768 5.5269127 3.0999999
-0.058729768 5.5269127 3.2
-0.058729768 5.5269127 3.3
-0.058729768 5.5269127 3.4000001
-0.058729768 5.5269127 3.5
-0.058729768 5.5269127 3.5999999
-0.058729768 5.5269127 3.7
-0.058729768 5.5269127 3.8
-0.058729768 5.5269127 3.9000001
-0.058729768 5.5269127 4
-0.058729768 5.5269127 4.0999999
-0.058729768 5.5269127 4.1999998
-0.058729768 5.5269127 4.3000002
-0.058729768 5.5269127 4.4000001
-0.058729768 5.5269127 4.5
-0.058729768 5.5269127 4.5999999
-0.058729768 5.5269127 4.6999998
-0.058729768 5.5269127 4.8000002
-0.058729768 5.5269127 4.9000001
-0.058729768 5.5269127 5
-0.058729768 5.5269127 5.0999999
-0.058729768 5.5269127 5.1999998
-0.058729768 5.5269127 5.3000002
-0.058729768 5.5269127 5.4000001
-0.058729768 5.5269127 5.5
-0.058729768 5.5269127 5.5999999
-0.058729768 5.5269127 5.6999998
-0.058729768 5.5269127 5.8000002
-0.058729768 5.5269127 5.9000001
-0.058729768 5.5269127 6
-0.058729768 5.5269127 6.0999999
-0.058729768 5.5269127 6.1999998
-0.058729768 5.5269127 6.3000002
-0.058729768 5.5269127 6.4000001
-0.058729768 5.5269127 6.5
-0.058729768 5.5269127 6.5999999
-0.058729768 5.5269127 6.6999998
-0.058729768 5.5269127 6.8000002
-0.058729768 5.5269127 6.9000001
-0.058729768 5.5269127 7
-0.058729768 5.5269127 7.0999999
-0.058729768 5.5269127 7.1999998
-0.058729768 5.5269127 7.3000002
-0.058729768 5.5269127 7.4000001
-0.058729768 5.5269127 7.5
-0.058729768 5.5269127 7.5999999
-0.058729768 5.5269127 7.6999998
-0.058729768 5.5269127 7.8000002
-0.058729768 5.5269127 7.9000001
-0.058729768 5.5269127 8
-0.058729768 5.5269127 8.1000004
-0.058729768 5.5269127 8.1999998
-0.058729768 5.5269127 8.3000002
-0.058729768 5.5269127 8.3999996
-0.058729768 5.5269127 8.5
-0.058729768 5.5269127 8.6000004
-0.058729768 5.5269127 8.6999998
-0.058729768 5.5269127 8.8000002
-0.058729768 5.5269127 8.8999996
-0.058729768 5.5269127 9
-0.058729768 5.5269127 9.1000004
-0.058729768 5.5269127 9.1999998
-0.058729768 5.5269127 9.3000002
-0.058729768 5.5269127 9.3999996
-0.058729768 5.5269127 9.5
-0.058729768 5.5269127 9.6000004
-0.058729768 5.5269127 9.6999998
-0.058729768 5.5269127 9.8000002
-0.058729768 5.5269127 9.8999996
-0.058729768 5.5269127 10
0.041270088 5.5267425 -0.5
0.041270088 5.5267425 -0.40000001
0.041270088 5.5267425 -0.30000001
0.041270088 5.5267425 -0.2
0.041270088 5.5267425 -0.1
0.041270088 5.5267425 -2.7755576e-17
0.041270088 5.5267425 0.1
0.041270088 5.5267425 0.2
0.041270088 5.5267425 0.30000001
0.041270088 5.5267425 0.40000001
0.041270088 5.5267425 0.5
0.041270088 5.5267425 0.60000002
0.041270088 5.5267425 0.69999999
0.041270088 5.5267425 0.80000001
0.041270088 5.5267425 0.89999998
0.041270088 5.5267425 1
0.041270088 5.5267425 1.1
0.041270088 5.5267425 1.2
0.041270088 5.5267425 1.3
0.041270088 5.5267425 1.4
0.041270088 5.5267425 1.5
0.041270088 5.5267425 1.6
0.041270088 5.5267425 1.7
0.041270088 5.5267425 1.8
0.041270088 5.5267425 1.9
0.041270088 5.5267425 2
0.041270088 5.5267425 2.0999999
0.041270088 5.5267425 2.2
0.041270088 5.5267425 2.3
0.041270088 5.5267425 2.4000001
0.041270088 5.5267425 2.5
0.041270088 5.5267425 2.5999999
0.041270088 5.5267425 2.7
0.041270088 5.5267425 2.8
0.041270088 5.5267425 2.9000001
0.041270088 5.5267425 3
0.041270088 5.5267425 3.0999999
0.041270088 5.5267425 3.2
0.041270088 5.5267425 3.3
0.041270088 5.5267425 3.4000001
0.041270088 5.5267425 3.5
0.041270088 5.5267425 3.5999999
0.041270088 5.5267425 3.7
0.041270088 5.5267425 3.8
0.041270088 5.5267425 3.9000001
0.041270088 5.5267425 4
0.041270088 5.5267425 4.0999999
0.041270088 5.5267425 4.1999998
0.041270088 5.5267425 4.3000002
0.041270088 5.5267425 4.4000001
0.041270088 5.5267425 4.5
0.041270088 5.5267425 4.5999999
0.041270088 5.5267425 4.6999998
0.041270088 5.5267425 4.8000002
0.041270088 5.5267425 4.9000001
0.041270088 5.5267425 5
0.041270088 5.5267425 5.0999999
0.041270088 5.5267425 5.1999998
0.041270088 5.5267425 5.3000002
0.041270088 5.5267425 5.4000001
0.041270088 5.5267425 5.5
0.041270088 5.5267425 5.5999999
0.041270088 5.5267425 5.6999998
0.041270088 5.5267425 5.8000002
0.041270088 5.5267425 5.9000001
0.041270088 5.5267425 6
0.041270088 5.5267425 6.0999999
0.041270088 5.5267425 6.1999998
0.041270088 5.5267425 6.3000002
0.041270088 5.5267425 6.4000001
0.041270088 5.5267425 6.5
0.041270088 5.5267425 6.5999999
0.041270088 5.5267425 6.6999998
0.041270088 5.5267425 6.8000002
0.041270088 5.5267425 6.9000001
0.041270088 5.5267425 7
0.041270088 5.5267425 7.0999999
0.041270088 5.5267425 7.1999998
0.041270088 5.5267425 7.3000002
0.041270088 5.5267425 7.4000001
0.041270088 5.5267425 7.5
0.041270088 5.5267425 7.5999999
0.041270088 5.5267425 7.6999998
0.041270088 5.5267425 7.8000002
0.041270088 5.5267425 7.9000001
0.041270088 5.5267425 8
0.041270088 5.5267425 8.1000004
0.041270088 5.5267425 8.1999998
0.041270088 5.5267425 8.3000002
0.041270088 5.5267425 8.3999996
0.041270088 5.5267425 8.5
0.041270088 5.5267425 8.6000004
0.041270088 5.5267425 8.6999998
0.041270088 5.5267425 8.8000002
0.041270088 5.5267425 8.8999996
0.041270088 5.5267425 9
0.041270088 5.5267425 9.1000004
0.041270088 5.5267425 9.1999998
0.041270088 5.5267425 9.3000002
0.041270088 5.5267425 9.3999996
0.041270088 5.5267425 9.5
0.041270088 5.5267425 9.6000004
0.041270088 5.5267425 9.6999998
0.041270088 5.5267425 9.8000002
0.041270088 5.5267425 9.8999996
0.041270088 5.5267425 10
0.14126994 5.5265727 -0.5
0.14126994 5.5265727 -0.40000001
0.14126994 5.5265727 -0.30000001
0.14126994 5.5265727 -0.2
0.14126994 5.5265727 -0.1
0.14126994 5.5265727 -2.7755576e-17
0.14126994 5.5265727 0.1
0.14126994 5.5265727 0.2
0.14126994 5.5265727 0.30000001
0.14126994 5.5265727 0.40000001
0.14126994 5.5265727 0.5
0.14126994 5.5265727 0.60000002
0.14126994 5.5265727 0.69999999
0.14126994 5.5265727 0.80000001
0.14126994 5.5265727 0.89999998
0.14126994 5.5265727 1
0.14126994 5.5265727 1.1
0.14126994 5.5265727 1.2
0.14126994 5.5265727 1.3
0.14126994 5.5265727 1.4
0.14126994 5.5265727 1.5
0.14126994 5.5265727 1.6
0.14126994 5.5265727 1.7
0.14126994 5.5265727 1.8
0.14126994 5.5265727 1.9
0.14126994 5.5265727 2
0.14126994 5.5265727 2.0999999
0.14126994 5.5265727 2.2
0.14126994 5.5265727 2.3
0.14126994 5.5265727 2.4000001
0.14126994 5.5265727 2.5
0.14126994 5.5265727 2.5999999
0.14126994 5.5265727 2.7
0.14126994 5.5265727 2.8
0.14126994 5.5265727 2.9000001
0.14126994 5.5265727 3
0.14126994 5.5265727 3.0999999
0.14126994 5.5265727 3.2
0.14126994 5.5265727 3.3
0.14126994 5.5265727 3.4000001
0.14126994 5.5265727 3.5
0.14126994 5.5265727 3.5999999
0.14126994 5.5265727 3.7
0.14126994 5.5265727 3.8
0.14126994 5.5265727 3.9000001
0.14126994 5.5265727 4
0.14126994 5.5265727 4.0999999
0.14126994 5.5265727 4.1999998
0.14126994 5.5265727 4.3000002
0.14126994 5.5265727 4.4000001
0.14126994 5.5265727 4.5
0.14126994 5.5265727 4.5999999
0.14126994 5.5265727 4.6999998
0.14126994 5.5265727 4.8000002
0.14126994 5.5265727 4.9000001
0.14126994 5.5265727 5
0.14126994 5.5265727 5.0999999
0.14126994 5.5265727 5.1999998
0.14126994 5.5265727 5.3000002
0.14126994 5.5265727 5.4000001
0.14126994 5.5265727 5.5
0.14126994 5.5265727 5.5999999
0.14126994 5.5265727 5.6999998
0.14126994 5.5265727 5.8000002
0.14126994 5.5265727 5.9000001
0.14126994 5.5265727 6
0.14126994 5.5265727 6.0999999
0.14126994 5.5265727 6.1999998
0.14126994 5.5265727 6.3000002
0.14126994 5.5265727 6.4000001
0.14126994 5.5265727 6.5
0.14126994 5.5265727 6.5999999
0.14126994 5.5265727 6.6999998
0.14126994 5.5265727 6.8000002
0.14126994 5.5265727 6.9000001
0.14126994 5.5265727 7
0.14126994 5.5265727 7.0999999
0.14126994 5.5265727 7.1999998
0.14126994 5.5265727 7.3000002
0.14126994 5.5265727 7.4000001
0.14126994 5.5265727 7.5
0.14126994 5.5265727 7.5999999
0.14126994 5.5265727 7.6999998
0.14126994 5.5265727 7.8000002
0.14126994 5.5265727 7.9000001
0.14126994 5.5265727 8
0.14126994 5.5265727 8.1000004
0.14126994 5.5265727 8.1999998
0.14126994 5.5265727 8.3000002
0.14126994 5.5265727 8.3999996
0.14126994 5.5265727 8.5
0.14126994 5.5265727 8.6000004
0.14126994 5.5265727 8.6999998
0.14126994 5.5265727 8.8000002
0.14126994 5.5265727 8.8999996
0.14126994 5.5265727 9
0.14126994 5.5265727 9.1000004
0.14126994 5.5265727 9.1999998
0.14126994 5.5265727 9.3000002
0.14126994 5.5265727 9.3999996
0.14126994 5.5265727 9.5
0.14126994 5.5265727 9.6000004
0.14126994 5.5265727 9.6999998
0.14126994 5.5265727 9.8000002
0.14126994 5.5265727 9.8999996
0.14126994 5.5265727 10
-0.15889964 5.427083 -0.5
-0.15889964 5.427083 -0.40000001
-0.15889964 5.427083 -0.30000001
-0.15889964 5.427083 -0.2
-0.15889964 5.427083 -0.1
-0.15889964 5.427083 -2.7755576e-17
-0.15889964 5.427083 0.1
-0.15889964 5.427083 0.2
-0.15889964 5.427083 0.30000001
-0.15889964 5.427083 0.40000001
-0.15889964 5.427083 0.5
-0.15889964 5.427083 0.60000002
-0.15889964 5.427083 0.69999999
-0.15889964 5.427083 0.80000001
-0.15889964 5.427083 0.89999998
-0.15889964 5.427083 1
-0.15889964 5.427083 1.1
-0.15889964 5.427083 1.2
-0.15889964 5.427083 1.3
-0.15889964 5.427083 1.4
-0.15889964 5.427083 1.5
-0.15889964 5.427083 1.6
-0.15889964 5.427083 1.7
-0.15889964 5.427083 1.8
-0.15889964 5.427083 1.9
-0.15889964 5.427083 2
-0.15889964 5.427083 2.0999999
-0.15889964 5.427083 2.2
-0.15889964 5.427083 2.3
-0.15889964 5.427083 2.4000001
-0.15889964 5.427083 2.5
-0.15889964 5.427083 2.5999999
-0.15889964 5.427083 2.7
-0.15889964 5.427083 2.8
-0.15889964 5.427083 2.9000001
-0.15889964 5.427083 3
-0.15889964 5.427083 3.0999999
-0.15889964 5.427083 3.2
-0.15889964 5.427083 3.3
-0.15889964 5.427083 3.4000001
-0.15889964 5.427083 3.5
-0.15889964 5.427083 3.5999999
-0.15889964 5.427083 3.7
-0.15889964 5.427083 3.8
-0.15889964 5.427083 3.9000001
-0.15889964 5.427083 4
-0.15889964 5.427083 4.0999999
-0.15889964 5.427083 4.1999998
-0.15889964 5.427083 4.3000002
-0.15889964 5.427083 4.4000001
-0.15889964 5.427083 4.5
-0.15889964 5.427083 4.5999999
-0.15889964 5.427083 4.6999998
-0.15889964 5.427083 4.8000002
-0.15889964 5.427083 4.9000001
-0.15889964 5.427083 5
-0.15889964 5.427083 5.0999999
-0.15889964 5.427083 5.1999998
-0.15889964 5.427083 5.3000002
-0.15889964 5.427083 5.4000001
-0.15889964 5.427083 5.5
-0.15889964 5.427083 5.5999999
-0.15889964 5.427083 5.6999998
-0.15889964 5.427083 5.8000002
-0.15889964 5.427083 5.9000001
-0.15889964 5.427083 6
-0.15889964 5.427083 6.0999999
-0.15889964 5.427083 6.1999998
-0.15889964 5.427083 6.3000002
-0.15889964 5.427083 6.4000001
-0.15889964 5.427083 6.5
-0.15889964 5.427083 6.5999999
-0.15889964 5.427083 6.6999998
-0.15889964 5.427083 6.8000002
-0.15889964 5.427083 6.9000001
-0.15889964 5.427083 7
-0.15889964 5.427083 7.0999999
-0.15889964 5.427083 7.1999998
-0.15889964 5.427083 7.3000002
-0.15889964 5.427083 7.4000001
-0.15889964 5.427083 7.5
-0.15889964 5.427083 7.5999999
-0.15889964 5.427083 7.6999998
-0.15889964 5.427083 7.8000002
-0.15889964 5.427083 7.9000001
-0.15889964 5.427083 8
-0.15889964 5.427083 8.1000004
-0.15889964 5.427083 8.1999998
-0.15889964 5.427083 8.3000002
-0.15889964 5.427083 8.3999996
-0.15889964 5.427083 8.5
-0.15889964 5.427083 8.6000004
-0.15889964 5.427083 8.6999998
-0.15889964 5.427083 8.8000002
-0.15889964 5.427083 8.8999996
-0.15889964 5.427083 9
-0.15889964 5.427083 9.1000004
-0.15889964 5.427083 9.1999998
-0.15889964 5.427083 9.3000002
-0.15889964 5.427083 9.3999996
-0.15889964 5.427083 9.5
-0.15889964 5.427083 9.6000004
-0.15889964 5.427083 9.6999998
-0.15889964 5.427083 9.8000002
-0.15889964 5.427083 9.8999996
-0.15889964 5.427083 10
-0.058899775 5.4269128 -0.5
-0.058899775 5.4269128 -0.40000001
-0.058899775 5.4269128 -0.30000001
-0.058899775 5.4269128 -0.2
-0.058899775 5.4269128 -0.1
-0.058899775 5.4269128 -2.7755576e-17
-0.058899775 5.4269128 0.1
-0.058899775 5.4269128 0.2
-0.058899775 5.4269128 0.30000001
-0.058899775 5.4269128 0.40000001
-0.058899775 5.4269128 0.5
-0.058899775 5.4269128 0.60000002
-0.058899775 5.4269128 0.69999999
-0.058899775 5.4269128 0.80000001
-0.058899775 5.4269128 0.89999998
-0.058899775 5.4269128 1
-0.058899775 5.4269128 1.1
-0.058899775 5.4269128 1.2
-0.058899775 5.4269128 1.3
-0.058899775 5.4269128 1.4
-0.058899775 5.4269128 1.5
-0.058899775 5.4269128 1.6
-0.058899775 5.4269128 1.7
-0.058899775 5.4269128 1.8
-0.058899775 5.4269128 1.9
-0.058899775 5.4269128 2
-0.058899775 5.4269128 2.0999999
-0.058899775 5.4269128 2.2
-0.058899775 5.4269128 2.3
-0.058899775 5.4269128 2.4000001
-0.058899775 5.4269128 2.5
-0.058899775 5.4269128 2.5999999
-0.058899775 5.4269128 2.7
-0.058899775 5.4269128 2.8
-0.058899775 5.4269128 2.9000001
-0.058899775 5.4269128 3
-0.058899775 5.4269128 3.0999999
-0.058899775 5.4269128 3.2
-0.058899775 5.4269128 3.3
-0.058899775 5.4269128 3.4000001
-0.058899775 5.4269128 3.5
-0.058899775 5.4269128 3.5999999
-0.058899775 5.4269128 3.7
-0.058899775 5.4269128 3.8
-0.058899775 5.4269128 3.9000001
-0.058899775 5.4269128 4
-0.058899775 5.4269128 4.0999999
-0.058899775 5.4269128 4.1999998
-0.058899775 5.4269128 4.3000002
-0.058899775 5.4269128 4.4000001
-0.058899775 5.4269128 4.5
-0.058899775 5.4269128 4.5999999
-0.058899775 5.4269128 4.6999998
-0.058899775 5.4269128 4.8000002
-0.058899775 5.4269128 4.9000001
-0.058899775 5.4269128 5
-0.058899775 5.4269128 5.0999999
-0.058899775 5.4269128 5.1999998
-0.058899775 5.4269128 5.3000002
-0.058899775 5.4269128 5.4000001
-0.058899775 5.4269128 5.5
-0.058899775 5.4269128 5.5999999
-0.058899775 5.4269128 5.6999998
-0.058899775 5.4269128 5.8000002
-0.058899775 5.4269128 5.9000001
-0.058899775 5.4269128 6
-0.058899775 5.4269128 6.0999999
-0.058899775 5.4269128 6.1999998
-0.058899775 5.4269128 6.3000002
-0.058899775 5.4269128 6.4000001
-0.058899775 5.4269128 6.5
-0.058899775 5.4269128 6.5999999
-0.058899775 5.4269128 6.6999998
-0.058899775 5.4269128 6.8000002
-0.058899775 5.4269128 6.9000001
-0.058899775 5.4269128 7
-0.058899775 5.4269128 7.0999999
-0.058899775 5.4269128 7.1999998
-0.058899775 5.4269128 7.3000002
-0.058899775 5.4269128 7.4000001
-0.058899775 5.4269128 7.5
-0.058899775 5.4269128 7.5999999
-0.058899775 5.4269128 7.6999998
-0.058899775 5.4269128 7.8000002
-0.058899775 5.4269128 7.9000001
-0.058899775 5.4269128 8
-0.058899775 5.4269128 8.1000004
-0.058899775 5.4269128 8.1999998
-0.058899775 5.4269128 8.3000002
-0.058899775 5.4269128 8.3999996
-0.058899775 5.4269128 8.5
-0.058899775 5.4269128 8.6000004
-0.058899775 5.4269128 8.6999998
-0.058899775 5.4269128 8.8000002
-0.058899775 5.4269128 8.8999996
-0.058899775 5.4269128 9
-0.058899775 5.4269128 9.1000004
-0.058899775 5.4269128 9.1999998
-0.058899775 5.4269128 9.3000002
-0.058899775 5.4269128 9.3999996
-0.058899775 5.4269128 9.5
-0.058899775 5.4269128 9.6000004
-0.058899775 5.4269128 9.6999998
-0.058899775 5.4269128 9.8000002
-0.058899775 5.4269128 9.8999996
-0.058899775 5.4269128 10
0.041100081 5.4267426 -0.5
0.041100081 5.4267426 -0.40000001
0.041100081 5.4267426 -0.30000001
0.041100081 5.4267426 -0.2
0.041100081 5.4267426 -0.1
0.041100081 5.4267426 -2.7755576e-17
0.041100081 5.4267426 0.1
0.041100081 5.4267426 0.2
0.041100081 5.4267426 0.30000001
0.041100081 5.4267426 0.40000001
0.041100081 5.4267426 0.5
0.041100081 5.4267426 0.60000002
0.041100081 5.4267426 0.69999999
0.041100081 5.4267426 0.80000001
0.041100081 5.4267426 0.89999998
0.041100081 5.4267426 1
0.041100081 5.4267426 1.1
0.041100081 5.4267426 1.2
0.041100081 5.4267426 1.3
0.041100081 5.4267426 1.4
0.041100081 5.4267426 1.5
0.041100081 5.4267426 1.6
0.041100081 5.4267426 1.7
0.041100081 5.4267426 1.8
0.041100081 5.4267426 1.9
0.041100081 5.4267426 2
0.041100081 5.4267426 2.0999999
0.041100081 5.4267426 2.2
0.041100081 5.4267426 2.3
0.041100081 5.4267426 2.4000001
0.041100081 5.4267426 2.5
0.041100081 5.4267426 2.5999999
0.041100081 5.4267426 2.7
0.041100081 5.4267426 2.8
0.041100081 5.4267426 2.9000001
0.041100081 5.4267426 3
0.041100081 5.4267426 3.0999999
0.041100081 5.4267426 3.2
0.041100081 5.4267426 3.3
0.041100081 5.4267426 3.4000001
0.041100081 5.4267426 3.5
0.041100081 5.4267426 3.5999999
0.041100081 5.4267426 3.7
0.041100081 5.4267426 3.8
0.041100081 5.4267426 3.9000001
0.041100081 5.4267426 4
0.041100081 5.4267426 4.0999999
0.041100081 5.4267426 4.1999998
0.041100081 5.4267426 4.3000002
0.041100081 5.4267426 4.4000001
0.041100081 5.4267426 4.5
0.041100081 5.4267426 4.5999999
0.041100081 5.4267426 4.6999998
0.041100081 5.4267426 4.8000002
0.041100081 5.4267426 4.9000001
0.041100081 5.4267426 5
0.041100081 5.4267426 5.0999999
0.041100081 5.4267426 5.1999998
0.041100081 5.4267426 5.3000002
0.041100081 5.4267426 5.4000001
0.041100081 5.4267426 5.5
0.041100081 5.4267426 5.5999999
0.041100081 5.4267426 5.6999998
0.041100081 5.4267426 5.8000002
0.041100081 5.4267426 5.9000001
0.041100081 5.4267426 6
0.041100081 5.4267426 6.0999999
0.041100081 5.4267426 6.1999998
0.041100081 5.4267426 6.3000002
0.041100081 5.4267426 6.4000001
0.041100081 5.4267426 6.5
0.041100081 5.4267426 6.5999999
0.041100081 5.4267426 6.6999998
0.041100081 5.4267426 6.8000002
0.041100081 5.4267426 6.9000001
0.041100081 5.4267426 7
0.041100081 5.4267426 7.0999999
0.041100081 5.4267426 7.1999998
0.041100081 5.4267426 7.3000002
0.041100081 5.4267426 7.4000001
0.041100081 5.4267426 7.5
0.041100081 5.4267426 7.5999999
0.041100081 5.4267426 7.6999998
0.041100081 5.4267426 7.8000002
0.041100081 5.4267426 7.9000001
0.041100081 5.4267426 8
0.041100081 5.4267426 8.1000004
0.041100081 5.4267426 8.1999998
0.041100081 5.4267426 8.3000002
0.041100081 5.4267426 8.3999996
0.041100081 5.4267426 8.5
0.041100081 5.4267426 8.6000004
0.041100081 5.4267426 8.6999998
0.041100081 5.4267426 8.8000002
0.041100081 5.4267426 8.8999996
0.041100081 5.4267426 9
0.041100081 5.4267426 9.1000004
0.041100081 5.4267426 9.1999998
0.041100081 5.4267426 9.3000002
0.041100081 5.4267426 9.3999996
0.041100081 5.4267426 9.5
0.041100081 5.4267426 9.6000004
0.041100081 5.4267426 9.6999998
0.041100081 5.4267426 9.8000002
0.041100081 5.4267426 9.8999996
0.041100081 5.4267426 10
0.14109994 5.4265728 -0.5
0.14109994 5.4265728 -0.40000001
0.14109994 5.4265728 -0.30000001
0.14109994 5.4265728 -0.2
0.14109994 5.4265728 -0.1
0.14109994 5.4265728 -2.7755576e-17
0.14109994 5.4265728 0.1
0.14109994 5.4265728 0.2
0.14109994 5.4265728 0.30000001
0.14109994 5.4265728 0.40000001
0.14109994 5.4265728 0.5
0.14109994 5.4265728 0.60000002
0.14109994 5.4265728 0.69999999
0.14109994 5.4265728 0.80000001
0.14109994 5.4265728 0.89999998
0.14109994 5.4265728 1
0.14109994 5.4265728 1.1
0.14109994 5.4265728 1.2
0.14109994 5.4265728 1.3
0.14109994 5.4265728 1.4
0.14109994 5.4265728 1.5
0.14109994 5.4265728 1.6
0.14109994 5.4265728 1.7
0.14109994 5.4265728 1.8
0.14109994 5.4265728 1.9
0.14109994 5.4265728 2
0.14109994 5.4265728 2.0999999
0.14109994 5.4265728 2.2
0.14109994 5.4265728 2.3
0.14109994 5.4265728 2.4000001
0.14109994 5.4265728 2.5
0.14109994 5.4265728 2.5999999
0.14109994 5.4265728 2.7
0.14109994 5.4265728 2.8
0.14109994 5.4265728 2.9000001
0.14109994 5.4265728 3
0.14109994 5.4265728 3.0999999
0.14109994 5.4265728 3.2
0.14109994 5.4265728 3.3
0.14109994 5.4265728 3.4000001
0.14109994 5.4265728 3.5
0.14109994 5.4265728 3.5999999
0.14109994 5.4265728 3.7
0.14109994 5.4265728 3.8
0.14109994 5.4265728 3.9000001
0.14109994 5.4265728 4
0.14109994 5.4265728 4.0999999
0.14109994 5.4265728 4.1999998
0.14109994 5.4265728 4.3000002
0.14109994 5.4265728 4.4000001
0.14109994 5.4265728 4.5
0.14109994 5.4265728 4.5999999
0.14109994 5.4265728 4.6999998
0.14109994 5.4265728 4.8000002
0.14109994 5.4265728 4.9000001
0.14109994 5.4265728 5
0.14109994 5.4265728 5.0999999
0.14109994 5.4265728 5.1999998
0.14109994 5.4265728 5.3000002
0.14109994 5.4265728 5.4000001
0.14109994 5.4265728 5.5
0.14109994 5.4265728 5.5999999
0.14109994 5.4265728 5.6999998
0.14109994 5.4265728 5.8000002
0.14109994 5.4265728 5.9000001
0.14109994 5.4265728 6
0.14109994 5.4265728 6.0999999
0.14109994 5.4265728 6.1999998
0.14109994 5.4265728 6.3000002
0.14109994 5.4265728 6.4000001
0.14109994 5.4265728 6.5
0.14109994 5.4265728 6.5999999
0.14109994 5.4265728 6.6999998
0.14109994 5.4265728 6.8000002
0.14109994 5.4265728 6.9000001
0.14109994 5.4265728 7
0.14109994 5.4265728 7.0999999
0.14109994 5.4265728 7.1999998
0.14109994 5.4265728 7.3000002
0.14109994 5.4265728 7.4000001
0.14109994 5.4265728 7.5
0.14109994 5.4265728 7.5999999
0.14109994 5.4265728 7.6999998
0.14109994 5.4265728 7.8000002
0.14109994 5.4265728 7.9000001
0.14109994 5.4265728 8
0.14109994 5.4265728 8.1000004
0.14109994 5.4265728 8.1999998
0.14109994 5.4265728 8.3000002
0.14109994 5.4265728 8.3999996
0.14109994 5.4265728 8.5
0.14109994 5.4265728 8.6000004
0.14109994 5.4265728 8.6999998
0.14109994 5.4265728 8.8000002
0.14109994 5.4265728 8.8999996
0.14109994 5.4265728 9
0.14109994 5.4265728 9.1000004
0.14109994 5.4265728 9.1999998
0.14109994 5.4265728 9.3000002
0.14109994 5.4265728 9.3999996
0.14109994 5.4265728 9.5
0.14109994 5.4265728 9.6000004
0.14109994 5.4265728 9.6999998
0.14109994 5.4265728 9.8000002
0.14109994 5.4265728 9.8999996
0.14109994 5.4265728 10
-0.15906964 5.3270831 -0.5
-0.15906964 5.3270831 -0.40000001
-0.15906964 5.3270831 -0.30000001
-0.15906964 5.3270831 -0.2
-0.15906964 5.3270831 -0.1
-0.15906964 5.3270831 -2.7755576e-17
-0.15906964 5.3270831 0.1
-0.15906964 5.3270831 0.2
-0.15906964 5.3270831 0.30000001
-0.15906964 5.3270831 0.40000001
-0.15906964 5.3270831 0.5
-0.15906964 5.3270831 0.60000002
-0.15906964 5.3270831 0.69999999
-0.15906964 5.3270831 0.80000001
-0.15906964 5.3270831 0.89999998
-0.15906964 5.3270831 1
-0.15906964 5.3270831 1.1
-0.15906964 5.3270831 1.2
-0.15906964 5.3270831 1.3
-0.15906964 5.3270831 1.4
-0.15906964 5.3270831 1.5
-0.15906964 5.3270831 1.6
-0.15906964 5.3270831 1.7
-0.15906964 5.3270831 1.8
-0.15906964 5.3270831 1.9
-0.15906964 5.3270831 2
-0.15906964 5.3270831 2.0999999
-0.15906964 5.3270831 2.2
-0.15906964 5.3270831 2.3
-0.15906964 5.3270831 2.4000001
-0.15906964 5.3270831 2.5
-0.15906964 5.3270831 2.5999999
-0.15906964 5.3270831 2.7
-0.15906964 5.3270831 2.8
-0.15906964 5.3270831 2.9000001
-0.15906964 5.3270831 3
-0.15906964 5.3270831 3.0999999
-0.15906964 5.3270831 3.2
-0.15906964 5.3270831 3.3
-0.15906964 5.3270831 3.4000001
-0.15906964 5.3270831 3.5
-0.15906964 5.3270831 3.5999999
-0.15906964 5.3270831 3.7
-0.15906964 5.3270831 3.8
-0.15906964 5.3270831 3.9000001
-0.15906964 5.3270831 4
-0.15906964 5.3270831 4.0999999
-0.15906964 5.3270831 4.1999998
-0.15906964 5.3270831 4.3000002
-0.15906964 5.3270831 4.4000001
-0.15906964 5.3270831 4.5
-0.15906964 5.3270831 4.5999999
-0.15906964 5.3270831 4.6999998
-0.15906964 5.3270831 4.8000002
-0.15906964 5.3270831 4.9000001
-0.15906964 5.3270831 5
-0.15906964 5.3270831 5.0999999
-0.15906964 5.3270831 5.1999998
-0.15906964 5.3270831 5.3000002
-0.15906964 5.3270831 5.4000001
-0.15906964 5.3270831 5.5
-0.15906964 5.3270831 5.5999999
-0.15906964 5.3270831 5.6999998
-0.15906964 5.3270831 5.8000002
-0.15906964 5.3270831 5.9000001
-0.15906964 5.3270831 6
-0.15906964 5.3270831 6.0999999
-0.15906964 5.3270831 6.1999998
-0.15906964 5.3270831 6.3000002
-0.15906964 5.3270831 6.4000001
-0.15906964 5.3270831 6.5
-0.15906964 5.3270831 6.5999999
-0.15906964 5.3270831 6.6999998
-0.15906964 5.3270831 6.8000002
-0.15906964 5.3270831 6.9000001
-0.15906964 5.3270831 7
-0.15906964 5.3270831 7.0999999
-0.15906964 5.3270831 7.1999998
-0.15906964 5.3270831 7.3000002
-0.15906964 5.3270831 7.4000001
-0.15906964 5.3270831 7.5
-0.15906964 5.3270831 7.5999999
-0.15906964 5.3270831 7.6999998
-0.15906964 5.3270831 7.8000002
-0.15906964 5.3270831 7.9000001
-0.15906964 5.3270831 8
-0.15906964 5.3270831 8.1000004
-0.15906964 5.3270831 8.1999998
-0.15906964 5.3270831 8.3000002
-0.15906964 5.3270831 8.3999996
-0.15906964 5.3270831 8.5
-0.15906964 5.3270831 8.6000004
-0.15906964 5.3270831 8.6999998
-0.15906964 5.3270831 8.8000002
-0.15906964 5.3270831 8.8999996
-0.15906964 5.3270831 9
-0.15906964 5.3270831 9.1000004
-0.15906964 5.3270831 9.1999998
-0.15906964 5.3270831 9.3000002
-0.15906964 5.3270831 9.3999996
-0.15906964 5.3270831 9.5
-0.15906964 5.3270831 9.6000004
-0.15906964 5.3270831 9.6999998
-0.15906964 5.3270831 9.8000002
-0.15906964 5.3270831 9.8999996
-0.15906964 5.3270831 10
-0.059069779 5.3269129 -0.5
-0.059069779 5.3269129 -0.40000001
-0.059069779 5.3269129 -0.30000001
-0.059069779 5.3269129 -0.2
-0.059069779 5.3269129 -0.1
-0.059069779 5.3269129 -2.7755576e-17
-0.059069779 5.3269129 0.1
-0.059069779 5.3269129 0.2
-0.059069779 5.3269129 0.30000001
-0.059069779 5.3269129 0.40000001
-0.059069779 5.3269129 0.5
-0.059069779 5.3269129 0.60000002
-0.059069779 5.3269129 0.69999999
-0.059069779 5.3269129 0.80000001
-0.059069779 5.3269129 0.89999998
-0.059069779 5.3269129 1
-0.059069779 5.3269129 1.1
-0.059069779 5.3269129 1.2
-0.059069779 5.3269129 1.3
-0.059069779 5.3269129 1.4
-0.059069779 5.3269129 1.5
-0.059069779 5.3269129 1.6
-0.059069779 5.3269129 1.7
-0.059069779 5.3269129 1.8
-0.059069779 5.3269129 1.9
-0.059069779 5.3269129 2
-0.059069779 5.3269129 2.0999999
-0.059069779 5.3269129 2.2
-0.059069779 5.3269129 2.3
-0.059069779 5.3269129 2.4000001
-0.059069779 5.3269129 2.5
-0.059069779 5.3269129 2.5999999
-0.059069779 5.3269129 2.7
-0.059069779 5.3269129 2.8
-0.059069779 5.3269129 2.9000001
-0.059069779 5.3269129 3
-0.059069779 5.3269129 3.0999999
-0.059069779 5.3269129 3.2
-0.059069779 5.3269129 3.3
-0.059069779 5.3269129 3.4000001
-0.059069779 5.3269129 3.5
-0.059069779 5.3269129 3.5999999
-0.059069779 5.3269129 3.7
-0.059069779 5.3269129 3.8
-0.059069779 5.3269129 3.9000001
-0.059069779 5.3269129 4
-0.059069779 5.3269129 4.0999999
-0.059069779 5.3269129 4.1999998
-0.059069779 5.3269129 4.3000002
-0.059069779 5.3269129 4.4000001
-0.059069779 5.3269129 4.5
-0.059069779 5.3269129 4.5999999
-0.059069779 5.3269129 4.6999998
-0.059069779 5.3269129 4.8000002
-0.059069779 5.3269129 4.9000001
-0.059069779 5.3269129 5
-0.059069779 5.3269129 5.0999999
-0.059069779 5.3269129 5.1999998
-0.059069779 5.3269129 5.3000002
-0.059069779 5.3269129 5.4000001
-0.059069779 5.3269129 5.5
-0.059069779 5.3269129 5.5999999
-0.059069779 5.3269129 5.6999998
-0.059069779 5.3269129 5.8000002
-0.059069779 5.3269129 5.9000001
-0.059069779 5.3269129 6
-0.059069779 5.3269129 6.0999999
-0.059069779 5.3269129 6.1999998
-0.059069779 5.3269129 6.3000002
-0.059069779 5.3269129 6.4000001
-0.059069779 5.3269129 6.5
-0.059069779 5.3269129 6.5999999
-0.059069779 5.3269129 6.6999998
-0.059069779 5.3269129 6.8000002
-0.059069779 5.3269129 6.9000001
-0.059069779 5.3269129 7
-0.059069779 5.3269129 7.0999999
-0.059069779 5.3269129 7.1999998
-0.059069779 5.3269129 7.3000002
-0.059069779 5.3269129 7.4000001
-0.059069779 5.3269129 7.5
-0.059069779 5.3269129 7.5999999
-0.059069779 5.3269129 7.6999998
-0.059069779 5.3269129 7.8000002
-0.059069779 5.3269129 7.9000001
-0.059069779 5.3269129 8
-0.059069779 5.3269129 8.1000004
-0.059069779 5.3269129 8.1999998
-0.059069779 5.3269129 8.3000002
-0.059069779 5.3269129 8.3999996
-0.059069779 5.3269129 8.5
-0.059069779 5.3269129 8.6000004
-0.059069779 5.3269129 8.6999998
-0.059069779 5.3269129 8.8000002
-0.059069779 5.3269129 8.8999996
-0.059069779 5.3269129 9
-0.059069779 5.3269129 9.1000004
-0.059069779 5.3269129 9.1999998
-0.059069779 5.3269129 9.3000002
-0.059069779 5.3269129 9.3999996
-0.059069779 5.3269129 9.5
-0.059069779 5.3269129 9.6000004
-0.059069779 5.3269129 9.6999998
-0.059069779 5.3269129 9.8000002
-0.059069779 5.3269129 9.8999996
-0.059069779 5.3269129 10
0.040930077 5.3267431 -0.5
0.040930077 5.3267431 -0.40000001
0.040930077 5.3267431 -0.30000001
0.040930077 5.3267431 -0.2
0.040930077 5.3267431 -0.1
0.040930077 5.3267431 -2.7755576e-17
0.040930077 5.3267431 0.1
0.040930077 5.3267431 0.2
0.040930077 5.3267431 0.30000001
0.040930077 5.3267431 0.40000001
0.040930077 5.3267431 0.5
0.040930077 5.3267431 0.60000002
0.040930077 5.3267431 0.69999999
0.040930077 5.3267431 0.80000001
0.040930077 5.3267431 0.89999998
0.040930077 5.3267431 1
0.040930077 5.3267431 1.1
0.040930077 5.3267431 1.2
0.040930077 5.3267431 1.3
0.040930077 5.3267431 1.4
0.040930077 5.3267431 1.5
0.040930077 5.3267431 1.6
0.040930077 5.3267431 1.7
0.040930077 5.3267431 1.8
0.040930077 5.3267431 1.9
0.040930077 5.3267431 2
0.040930077 5.3267431 2.0999999
0.040930077 5.3267431 2.2
0.040930077 5.3267431 2.3
0.040930077 5.3267431 2.4000001
0.040930077 5.3267431 2.5
0.040930077 5.3267431 2.5999999
0.040930077 5.3267431 2.7
0.040930077 5.3267431 2.8
0.040930077 5.3267431 2.9000001
0.040930077 5.3267431 3
0.040930077 5.3267431 3.0999999
0.040930077 5.3267431 3.2
0.040930077 5.3267431 3.3
0.040930077 5.3267431 3.4000001
0.040930077 5.3267431 3.5
0.040930077 5.3267431 3.5999999
0.040930077 5.3267431 3.7
0.040930077 5.3267431 3.8
0.040930077 5.3267431 3.9000001
0.040930077 5.3267431 4
0.040930077 5.3267431 4.0999999
0.040930077 5.3267431 4.1999998
0.040930077 5.3267431 4.3000002
0.040930077 5.3267431 4.4000001
0.040930077 5.3267431 4.5
0.040930077 5.3267431 4.5999999
0.040930077 5.3267431 4.6999998
0.040930077 5.3267431 4.8000002
0.040930077 5.3267431 4.9000001
0.040930077 5.3267431 5
0.040930077 5.3267431 5.0999999
0.040930077 5.3267431 5.1999998
0.040930077 5.3267431 5.3000002
0.040930077 5.3267431 5.4000001
0.040930077 5.3267431 5.5
0.040930077 5.3267431 5.5999999
0.040930077 5.3267431 5.6999998
0.040930077 5.3267431 5.8000002
0.040930077 5.3267431 5.9000001
0.040930077 5.3267431 6
0.040930077 5.3267431 6.0999999
0.040930077 5.3267431 6.1999998
0.040930077 5.3267431 6.3000002
0.040930077 5.3267431 6.4000001
0.040930077 5.3267431 6.5
0.040930077 5.3267431 6.5999999
0.040930077 5.3267431 6.6999998
0.040930077 5.3267431 6.8000002
0.040930077 5.3267431 6.9000001
0.040930077 5.3267431 7
0.040930077 5.3267431 7.0999999
0.040930077 5.3267431 7.1999998
0.040930077 5.3267431 7.3000002
0.040930077 5.3267431 7.4000001
0.040930077 5.3267431 7.5
0.040930077 5.3267431 7.5999999
0.040930077 5.3267431 7.6999998
0.040930077 5.3267431 7.8000002
0.040930077 5.3267431 7.9000001
0.040930077 5.3267431 8
0.040930077 5.3267431 8.1000004
0.040930077 5.3267431 8.1999998
0.040930077 5.3267431 8.3000002
0.040930077 5.3267431 8.3999996
0.040930077 5.3267431 8.5
0.040930077 5.3267431 8.6000004
0.040930077 5.3267431 8.6999998
0.040930077 5.3267431 8.8000002
0.040930077 5.3267431 8.8999996
0.040930077 5.3267431 9
0.040930077 5.3267431 9.1000004
0.040930077 5.3267431 9.1999998
0.040930077 5.3267431 9.3000002
0.040930077 5.3267431 9.3999996
0.040930077 5.3267431 9.5
0.040930077 5.3267431 9.6000004
0.040930077 5.3267431 9.6999998
0.040930077 5.3267431 9.8000002
0.040930077 5.3267431 9.8999996
0.040930077 5.3267431 10
0.14092994 5.3265729 -0.5
0.14092994 5.3265729 -0.40000001
0.14092994 5.3265729 -0.30000001
0.14092994 5.3265729 -0.2
0.14092994 5.3265729 -0.1
0.14092994 5.3265729 -2.7755576e-17
0.14092994 5.3265729 0.1
0.14092994 5.3265729 0.2
0.14092994 5.3265729 0.30000001
0.14092994 5.3265729 0.40000001
0.14092994 5.3265729 0.5
0.14092994 5.3265729 0.60000002
0.14092994 5.3265729 0.69999999
0.14092994 5.3265729 0.80000001
0.14092994 5.3265729 0.89999998
0.14092994 5.3265729 1
0.14092994 5.3265729 1.1
0.14092994 5.3265729 1.2
0.14092994 5.3265729 1.3
0.14092994 5.3265729 1.4
0.14092994 5.3265729 1.5
0.14092994 5.3265729 1.6
0.14092994 5.3265729 1.7
0.14092994 5.3265729 1.8
0.14092994 5.3265729 1.9
0.14092994 5.3265729 2
0.14092994 5.3265729 2.0999999
0.14092994 5.3265729 2.2
0.14092994 5.3265729 2.3
0.14092994 5.3265729 2.4000001
0.14092994 5.3265729 2.5
0.14092994 5.3265729 2.5999999
0.14092994 5.3265729 2.7
0.14092994 5.3265729 2.8
0.14092994 5.3265729 2.9000001
0.14092994 5.3265729 3
0.14092994 5.3265729 3.0999999
0.14092994 5.3265729 3.2
0.14092994 5.3265729 3.3
0.14092994 5.3265729 3.4000001
0.14092994 5.3265729 3.5
0.14092994 5.3265729 3.5999999
0.14092994 5.3265729 3.7
0.14092994 5.3265729 3.8
0.14092994 5.3265729 3.9000001
0.14092994 5.3265729 4
0.14092994 5.3265729 4.0999999
0.14092994 5.3265729 4.1999998
0.14092994 5.3265729 4.3000002
0.14092994 5.3265729 4.4000001
0.14092994 5.3265729 4.5
0.14092994 5.3265729 4.5999999
0.14092994 5.3265729 4.6999998
0.14092994 5.3265729 4.8000002
0.14092994 5.3265729 4.9000001
0.14092994 5.3265729 5
0.14092994 5.3265729 5.0999999
0.14092994 5.3265729 5.1999998
0.14092994 5.3265729 5.3000002
0.14092994 5.3265729 5.4000001
0.14092994 5.3265729 5.5
0.14092994 5.3265729 5.5999999
0.14092994 5.3265729 5.6999998
0.14092994 5.3265729 5.8000002
0.14092994 5.3265729 5.9000001
0.14092994 5.3265729 6
0.14092994 5.3265729 6.0999999
0.14092994 5.3265729 6.1999998
0.14092994 5.3265729 6.3000002
0.14092994 5.3265729 6.4000001
0.14092994 5.3265729 6.5
0.14092994 5.3265729 6.5999999
0.14092994 5.3265729 6.6999998
0.14092994 5.3265729 6.8000002
0.14092994 5.3265729 6.9000001
0.14092994 5.3265729 7
0.14092994 5.3265729 7.0999999
0.14092994 5.3265729 7.1999998
0.14092994 5.3265729 7.3000002
0.14092994 5.3265729 7.4000001
0.14092994 5.3265729 7.5
0.14092994 5.3265729 7.5999999
0.14092994 5.3265729 7.6999998
0.14092994 5.3265729 7.8000002
0.14092994 5.3265729 7.9000001
0.14092994 5.3265729 8
0.14092994 5.3265729 8.1000004
0.14092994 5.3265729 8.1999998
0.14092994 5.3265729 8.3000002
0.14092994 5.3265729 8.3999996
0.14092994 5.3265729 8.5
0.14092994 5.3265729 8.6000004
0.14092994 5.3265729 8.6999998
0.14092994 5.3265729 8.8000002
0.14092994 5.3265729 8.8999996
0.14092994 5.3265729 9
0.14092994 5.3265729 9.1000004
0.14092994 5.3265729 9.1999998
0.14092994 5.3265729 9.3000002
0.14092994 5.3265729 9.3999996
0.14092994 5.3265729 9.5
0.14092994 5.3265729 9.6000004
0.14092994 5.3265729 9.6999998
0.14092994 5.3265729 9.8000002
0.14092994 5.3265729 9.8999996
0.14092994 5.3265729 10
-0.15923963 5.2270832 -0.5
-0.15923963 5.2270832 -0.40000001
-0.15923963 5.2270832 -0.30000001
-0.15923963 5.2270832 -0.2
-0.15923963 5.2270832 -0.1
-0.15923963 5.2270832 -2.7755576e-17
-0.15923963 5.2270832 0.1
-0.15923963 5.2270832 0.2
-0.15923963 5.2270832 0.30000001
-0.15923963 5.2270832 0.40000001
-0.15923963 5.2270832 0.5
-0.15923963 5.2270832 0.60000002
-0.15923963 5.2270832 0.69999999
-0.15923963 5.2270832 0.80000001
-0.15923963 5.2270832 0.89999998
-0.15923963 5.2270832 1
-0.15923963 5.2270832 1.1
-0.15923963 5.2270832 1.2
-0.15923963 5.2270832 1.3
-0.15923963 5.2270832 1.4
-0.15923963 5.2270832 1.5
-0.15923963 5.2270832 1.6
-0.15923963 5.2270832 1.7
-0.15923963 5.2270832 1.8
-0.15923963 5.2270832 1.9
-0.15923963 5.2270832 2
-0.15923963 5.2270832 2.0999999
-0.15923963 5.2270832 2.2
-0.15923963 5.2270832 2.3
-0.15923963 5.2270832 2.4000001
-0.15923963 5.2270832 2.5
-0.15923963 5.2270832 2.5999999
-0.15923963 5.2270832 2.7
-0.15923963 5.2270832 2.8
-0.15923963 5.2270832 2.9000001
-0.15923963 5.2270832 3
-0.15923963 5.2270832 3.0999999
-0.15923963 5.2270832 3.2
-0.15923963 5.2270832 3.3
-0.15923963 5.2270832 3.4000001
-0.15923963 5.2270832 3.5
-0.15923963 5.2270832 3.5999999
-0.15923963 5.2270832 3.7
-0.15923963 5.2270832 3.8
-0.15923963 5.2270832 3.9000001
-0.15923963 5.2270832 4
-0.15923963 5.2270832 4.0999999
-0.15923963 5.2270832 4.1999998
-0.15923963 5.2270832 4.3000002
-0.15923963 5.2270832 4.4000001
-0.15923963 5.2270832 4.5
-0.15923963 5.2270832 4.5999999
-0.15923963 5.2270832 4.6999998
-0.15923963 5.2270832 4.8000002
-0.15923963 5.2270832 4.9000001
-0.15923963 5.2270832 5
-0.15923963 5.2270832 5.0999999
-0.15923963 5.2270832 5.1999998
-0.15923963 5.2270832 5.3000002
-0.15923963 5.2270832 5.4000001
-0.15923963 5.2270832 5.5
-0.15923963 5.2270832 5.5999999
-0.15923963 5.2270832 5.6999998
-0.15923963 5.2270832 5.8000002
-0.15923963 5.2270832 5.9000001
-0.15923963 5.2270832 6
-0.15923963 5.2270832 6.0999999
-0.15923963 5.2270832 6.1999998
-0.15923963 5.2270832 6.3000002
-0.15923963 5.2270832 6.4000001
-0.15923963 5.2270832 6.5
-0.15923963 5.2270832 6.5999999
-0.15923963 5.2270832 6.6999998
-0.15923963 5.2270832 6.8000002
-0.15923963 5.2270832 6.9000001
-0.15923963 5.2270832 7
-0.15923963 5.2270832 7.0999999
-0.15923963 5.2270832 7.1999998
-0.15923963 5.2270832 7.3000002
-0.15923963 5.2270832 7.4000001
-0.15923963 5.2270832 7.5
-0.15923963 5.2270832 7.5999999
-0.15923963 5.2270832 7.6999998
-0.15923963 5.2270832 7.8000002
-0.15923963 5.2270832 7.9000001
-0.15923963 5.2270832 8
-0.15923963 5.2270832 8.1000004
-0.15923963 5.2270832 8.1999998
-0.15923963 5.2270832 8.3000002
-0.15923963 5.2270832 8.3999996
-0.15923963 5.2270832 8.5
-0.15923963 5.2270832 8.6000004
-0.15923963 5.2270832 8.6999998
-0.15923963 5.2270832 8.8000002
-0.15923963 5.2270832 8.8999996
-0.15923963 5.2270832 9
-0.15923963 5.2270832 9.1000004
-0.15923963 5.2270832 9.1999998
-0.15923963 5.2270832 9.3000002
-0.15923963 5.2270832 9.3999996
-0.15923963 5.2270832 9.5
-0.15923963 5.2270832 9.6000004
-0.15923963 5.2270832 9.6999998
-0.15923963 5.2270832 9.8000002
-0.15923963 5.2270832 9.8999996
-0.15923963 5.2270832 10
-0.059239786 5.226913 -0.5
-0.059239786 5.226913 -0.40000001
-0.059239786 5.226913 -0.30000001
-0.059239786 5.226913 -0.2
-0.059239786 5.226913 -0.1
-0.059239786 5.226913 -2.7755576e-17
-0.059239786 5.226913 0.1
-0.059239786 5.226913 0.2
-0.059239786 5.226913 0.30000001
-0.059239786 5.226913 0.40000001
-0.059239786 5.226913 0.5
-0.059239786 5.226913 0.60000002
-0.059239786 5.226913 0.69999999
-0.059239786 5.226913 0.80000001
-0.059239786 5.226913 0.89999998
-0.059239786 5.226913 1
-0.059239786 5.226913 1.1
-0.059239786 5.226913 1.2
-0.059239786 5.226913 1.3
-0.059239786 5.226913 1.4
-0.059239786 5.226913 1.5
-0.059239786 5.226913 1.6
-0.059239786 5.226913 1.7
-0.059239786 5.226913 1.8
-0.059239786 5.226913 1.9
-0.059239786 5.226913 2
-0.059239786 5.226913 2.0999999
-0.059239786 5.226913 2.2
-0.059239786 5.226913 2.3
-0.059239786 5.226913 2.4000001
-0.059239786 5.226913 2.5
-0.059239786 5.226913 2.5999999
-0.059239786 5.226913 2.7
-0.059239786 5.226913 2.8
-0.059239786 5.226913 2.9000001
-0.059239786 5.226913 3
-0.059239786 5.226913 3.0999999
-0.059239786 5.226913 3.2
-0.059239786 5.226913 3.3
-0.059239786 5.226913 3.4000001
-0.059239786 5.226913 3.5
-0.059239786 5.226913 3.5999999
-0.059239786 5.226913 3.7
-0.059239786 5.226913 3.8
-0.059239786 5.226913 3.9000001
-0.059239786 5.226913 4
-0.059239786 5.226913 4.0999999
-0.059239786 5.226913 4.1999998
-0.059239786 5.226913 4.3000002
-0.059239786 5.226913 4.4000001
-0.059239786 5.226913 4.5
-0.059239786 5.226913 4.5999999
-0.059239786 5.226913 4.6999998
-0.059239786 5.226913 4.8000002
-0.059239786 5.226913 4.9000001
-0.059239786 5.226913 5
-0.059239786 5.226913 5.0999999
-0.059239786 5.226913 5.1999998
-0.059239786 5.226913 5.3000002
-0.059239786 5.226913 5.4000001
-0.059239786 5.226913 5.5
-0.059239786 5.226913 5.5999999
-0.059239786 5.226913 5.6999998
-0.059239786 5.226913 5.8000002
-0.059239786 5.226913 5.9000001
-0.059239786 5.226913 6
-0.059239786 5.226913 6.0999999
-0.059239786 5.226913 6.1999998
-0.059239786 5.226913 6.3000002
-0.059239786 5.226913 6.4000001
-0.059239786 5.226913 6.5
-0.059239786 5.226913 6.5999999
-0.059239786 5.226913 6.6999998
-0.059239786 5.226913 6.8000002
-0.059239786 5.226913 6.9000001
-0.059239786 5.226913 7
-0.059239786 5.226913 7.0999999
-0.059239786 5.226913 7.1999998
-0.059239786 5.226913 7.3000002
-0.059239786 5.226913 7.4000001
-0.059239786 5.226913 7.5
-0.059239786 5.226913 7.5999999
-0.059239786 5.226913 7.6999998
-0.059239786 5.226913 7.8000002
-0.059239786 5.226913 7.9000001
-0.059239786 5.226913 8
-0.059239786 5.226913 8.1000004
-0.059239786 5.226913 8.1999998
-0.059239786 5.226913 8.3000002
-0.059239786 5.226913 8.3999996
-0.059239786 5.226913 8.5
-0.059239786 5.226913 8.6000004
-0.059239786 5.226913 8.6999998
-0.059239786 5.226913 8.8000002
-0.059239786 5.226913 8.8999996
-0.059239786 5.226913 9
-0.059239786 5.226913 9.1000004
-0.059239786 5.226913 9.1999998
-0.059239786 5.226913 9.3000002
-0.059239786 5.226913 9.3999996
-0.059239786 5.226913 9.5
-0.059239786 5.226913 9.6000004
-0.059239786 5.226913 9.6999998
-0.059239786 5.226913 9.8000002
-0.059239786 5.226913 9.8999996
-0.059239786 5.226913 10
0.04076007 5.2267432 -0.5
0.04076007 5.2267432 -0.40000001
0.04076007 5.2267432 -0.30000001
0.04076007 5.2267432 -0.2
0.04076007 5.2267432 -0.1
0.04076007 5.2267432 -2.7755576e-17
0.04076007 5.2267432 0.1
0.04076007 5.2267432 0.2
0.04076007 5.2267432 0.30000001
0.04076007 5.2267432 0.40000001
0.04076007 5.2267432 0.5
0.04076007 5.2267432 0.60000002
0.04076007 5.2267432 0.69999999
0.04076007 5.2267432 0.80000001
0.04076007 5.2267432 0.89999998
0.04076007 5.2267432 1
0.04076007 5.2267432 1.1
0.04076007 5.2267432 1.2
0.04076007 5.2267432 1.3
0.04076007 5.2267432 1.4
0.04076007 5.2267432 1.5
0.04076007 5.2267432 1.6
0.04076007 5.2267432 1.7
0.04076007 5.2267432 1.8
0.04076007 5.2267432 1.9
0.04076007 5.2267432 2
0.04076007 5.2267432 2.0999999
0.04076007 5.2267432 2.2
0.04076007 5.2267432 2.3
0.04076007 5.2267432 2.4000001
0.04076007 5.2267432 2.5
0.04076007 5.2267432 2.5999999
0.04076007 5.2267432 2.7
0.04076007 5.2267432 2.8
0.04076007 5.2267432 2.9000001
0.04076007 5.2267432 3
0.04076007 5.2267432 3.0999999
0.04076007 5.2267432 3.2
0.04076007 5.2267432 3.3
0.04076007 5.2267432 3.4000001
0.04076007 5.2267432 3.5
0.04076007 5.2267432 3.5999999
0.04076007 5.2267432 3.7
0.04076007 5.2267432 3.8
0.04076007 5.2267432 3.9000001
0.04076007 5.2267432 4
0.04076007 5.2267432 4.0999999
0.04076007 5.2267432 4.1999998
0.04076007 5.2267432 4.3000002
0.04076007 5.2267432 4.4000001
0.04076007 5.2267432 4.5
0.04076007 5.2267432 4.5999999
0.04076007 5.2267432 4.6999998
0.04076007 5.2267432 4.8000002
0.04076007 5.2267432 4.9000001
0.04076007 5.2267432 5
0.04076007 5.2267432 5.0999999
0.04076007 5.2267432 5.1999998
0.04076007 5.2267432 5.3000002
0.04076007 5.2267432 5.4000001
0.04076007 5.2267432 5.5
0.04076007 5.2267432 5.5999999
0.04076007 5.2267432 5.6999998
0.04076007 5.2267432 5.8000002
0.04076007 5.2267432 5.9000001
0.04076007 5.2267432 6
0.04076007 5.2267432 6.0999999
0.04076007 5.2267432 6.1999998
0.04076007 5.2267432 6.3000002
0.04076007 5.2267432 6.4000001
0.04076007 5.2267432 6.5
0.04076007 5.2267432 6.5999999
0.04076007 5.2267432 6.6999998
0.04076007 5.2267432 6.8000002
0.04076007 5.2267432 6.9000001
0.04076007 5.2267432 7
0.04076007 5.2267432 7.0999999
0.04076007 5.2267432 7.1999998
0.04076007 5.2267432 7.3000002
0.04076007 5.2267432 7.4000001
0.04076007 5.2267432 7.5
0.04076007 5.2267432 7.5999999
0.04076007 5.2267432 7.6999998
0.04076007 5.2267432 7.8000002
0.04076007 5.2267432 7.9000001
0.04076007 5.2267432 8
0.04076007 5.2267432 8.1000004
0.04076007 5.2267432 8.1999998
0.04076007 5.2267432 8.3000002
0.04076007 5.2267432 8.3999996
0.04076007 5.2267432 8.5
0.04076007 5.2267432 8.6000004
0.04076007 5.2267432 8.6999998
0.04076007 5.2267432 8.8000002
0.04076007 5.2267432 8.8999996
0.04076007 5.2267432 9
0.04076007 5.2267432 9.1000004
0.04076007 5.2267432 9.1999998
0.04076007 5.2267432 9.3000002
0.04076007 5.2267432 9.3999996
0.04076007 5.2267432 9.5
0.04076007 5.2267432 9.6000004
0.04076007 5.2267432 9.6999998
0.04076007 5.2267432 9.8000002
0.04076007 5.2267432 9.8999996
0.04076007 5.2267432 10
0.14075993 5.226573 -0.5
0.14075993 5.226573 -0.40000001
0.14075993 5.226573 -0.30000001
0.14075993 5.226573 -0.2
0.14075993 5.226573 -0.1
0.14075993 5.226573 -2.7755576e-17
0.14075993 5.226573 0.1
0.14075993 5.226573 0.2
0.14075993 5.226573 0.30000001
0.14075993 5.226573 0.40000001
0.14075993 5.226573 0.5
0.14075993 5.226573 0.60000002
0.14075993 5.226573 0.69999999
0.14075993 5.226573 0.80000001
0.14075993 5.226573 0.89999998
0.14075993 5.226573 1
0.14075993 5.226573 1.1
0.14075993 5.226573 1.2
0.14075993 5.226573 1.3
0.14075993 5.226573 1.4
0.14075993 5.226573 1.5
0.14075993 5.226573 1.6
0.14075993 5.226573 1.7
0.14075993 5.226573 1.8
0.14075993 5.226573 1.9
0.14075993 5.226573 2
0.14075993 5.226573 2.0999999
0.14075993 5.226573 2.2
0.14075993 5.226573 2.3
0.14075993 5.226573 2.4000001
0.14075993 5.226573 2.5
0.14075993 5.226573 2.5999999
0.14075993 5.226573 2.7
0.14075993 5.226573 2.8
0.14075993 5.226573 2.9000001
0.14075993 5.226573 3
0.14075993 5.226573 3.0999999
0.14075993 5.226573 3.2
0.14075993 5.226573 3.3
0.14075993 5.226573 3.4000001
0.14075993 5.226573 3.5
0.14075993 5.226573 3.5999999
0.14075993 5.226573 3.7
0.14075993 5.226573 3.8
0.14075993 5.226573 3.9000001
0.14075993 5.226573 4
0.14075993 5.226573 4.0999999
0.14075993 5.226573 4.1999998
0.14075993 5.226573 4.3000002
0.14075993 5.226573 4.4000001
0.14075993 5.226573 4.5
0.14075993 5.226573 4.5999999
0.14075993 5.226573 4.6999998
0.14075993 5.226573 4.8000002
0.14075993 5.226573 4.9000001
0.14075993 5.226573 5
0.14075993 5.226573 5.0999999
0.14075993 5.226573 5.1999998
0.14075993 5.226573 5.3000002
0.14075993 5.226573 5.4000001
0.14075993 5.226573 5.5
0.14075993 5.226573 5.5999999
0.14075993 5.226573 5.6999998
0.14075993 5.226573 5.8000002
0.14075993 5.226573 5.9000001
0.14075993 5.226573 6
0.14075993 5.226573 6.0999999
0.14075993 5.226573 6.1999998
0.14075993 5.226573 6.3000002
0.14075993 5.226573 6.4000001
0.14075993 5.226573 6.5
0.14075993 5.226573 6.5999999
0.14075993 5.226573 6.6999998
0.14075993 5.226573 6.8000002
0.14075993 5.226573 6.9000001
0.14075993 5.226573 7
0.14075993 5.226573 7.0999999
0.14075993 5.226573 7.1999998
0.14075993 5.226573 7.3000002
0.14075993 5.226573 7.4000001
0.14075993 5.226573 7.5
0.14075993 5.226573 7.5999999
0.14075993 5.226573 7.6999998
0.14075993 5.226573 7.8000002
0.14075993 5.226573 7.9000001
0.14075993 5.226573 8
0.14075993 5.226573 8.1000004
0.14075993 5.226573 8.1999998
0.14075993 5.226573 8.3000002
0.14075993 5.226573 8.3999996
0.14075993 5.226573 8.5
0.14075993 5.226573 8.6000004
0.14075993 5.226573 8.6999998
0.14075993 5.226573 8.8000002
0.14075993 5.226573 8.8999996
0.14075993 5.226573 9
0.14075993 5.226573 9.1000004
0.14075993 5.226573 9.1999998
0.14075993 5.226573 9.3000002
0.14075993 5.226573 9.3999996
0.14075993 5.226573 9.5
0.14075993 5.226573 9.6000004
0.14075993 5.226573 9.6999998
0.14075993 5.226573 9.8000002
0.14075993 5.226573 9.8999996
0.14075993 5.226573 10
-0.15940964 5.1270833 -0.5
-0.15940964 5.1270833 -0.40000001
-0.15940964 5.1270833 -0.30000001
-0.15940964 5.1270833 -0.2
-0.15940964 5.1270833 -0.1
-0.15940964 5.1270833 -2.7755576e-17
-0.15940964 5.1270833 0.1
-0.15940964 5.1270833 0.2
-0.15940964 5.1270833 0.30000001
-0.15940964 5.1270833 0.40000001
-0.15940964 5.1270833 0.5
-0.15940964 5.1270833 0.60000002
-0.15940964 5.1270833 0.69999999
-0.15940964 5.1270833 0.80000001
-0.15940964 5.1270833 0.89999998
-0.15940964 5.1270833 1
-0.15940964 5.1270833 1.1
-0.15940964 5.1270833 1.2
-0.15940964 5.1270833 1.3
-0.15940964 5.1270833 1.4
-0.15940964 5.1270833 1.5
-0.15940964 5.1270833 1.6
-0.15940964 5.1270833 1.7
-0.15940964 5.1270833 1.8
-0.15940964 5.1270833 1.9
-0.15940964 5.1270833 2
-0.15940964 5.1270833 2.0999999
-0.15940964 5.1270833 2.2
-0.15940964 5.1270833 2.3
-0.15940964 5.1270833 2.4000001
-0.15940964 5.1270833 2.5
-0.15940964 5.1270833 2.5999999
-0.15940964 5.1270833 2.7
-0.15940964 5.1270833 2.8
-0.15940964 5.1270833 2.9000001
-0.15940964 5.1270833 3
-0.15940964 5.1270833 3.0999999
-0.15940964 5.1270833 3.2
-0.15940964 5.1270833 3.3
-0.15940964 5.1270833 3.4000001
-0.15940964 5.1270833 3.5
